# .PCD v0.7 - Point Cloud Data file format
VERSION 0.7
FIELDS x y z
SIZE 4 4 4
TYPE F F F
COUNT 1 1 1
WIDTH 1723
HEIGHT 1
VIEWPOINT 0 0 0 1 0 0 0
POINTS 1723
DATA ascii
0.008797 0.302923 1.706491
0.018158 0.302878 1.706236
0.027540 0.303097 1.707470
0.037019 0.304000 1.712554
0.046652 0.305540 1.721234
0.056844 0.309615 1.744187
0.068992 0.321629 1.811869
0.128600 0.298455 1.681320
0.137288 0.297290 1.674756
0.146369 0.297071 1.673520
0.155169 0.296339 1.669399
0.164705 0.297017 1.673220
0.175493 0.299762 1.688681
0.187573 0.304327 1.714398
-0.395090 0.313277 1.711898
-0.378506 0.307436 1.679981
-0.366511 0.305124 1.667349
-0.357380 0.305140 1.667434
-0.349227 0.306013 1.672206
-0.340496 0.306413 1.674391
-0.333447 0.308390 1.685197
-0.328617 0.312592 1.708159
-0.275523 0.316199 1.727868
-0.264328 0.314163 1.716740
-0.253523 0.312455 1.707407
-0.243571 0.311709 1.703333
-0.234073 0.311507 1.702230
-0.225163 0.312104 1.705489
-0.216069 0.312485 1.707575
-0.206664 0.312433 1.707288
-0.197111 0.312139 1.705680
-0.187732 0.312106 1.705504
-0.178853 0.312945 1.710085
-0.169789 0.313534 1.713306
-0.160746 0.314235 1.717135
-0.151700 0.315017 1.721407
-0.141224 0.312735 1.708939
-0.130672 0.309948 1.693708
-0.121375 0.309938 1.693656
-0.111038 0.307053 1.677888
-0.101514 0.306096 1.672662
-0.093133 0.308739 1.687104
-0.085086 0.313191 1.711432
-0.076214 0.315340 1.723171
-0.066865 0.315840 1.725905
-0.057343 0.315555 1.724349
-0.047744 0.314650 1.719405
-0.038190 0.313669 1.714040
-0.028734 0.313120 1.711043
-0.019302 0.312423 1.707233
-0.009917 0.311866 1.704191
-0.000565 0.311564 1.702540
0.008777 0.311576 1.702608
0.018117 0.311530 1.702353
0.027527 0.312318 1.706658
0.036965 0.312940 1.710060
0.046540 0.314229 1.717103
0.056456 0.317008 1.732287
0.068309 0.328289 1.793933
0.128017 0.306285 1.673693
0.137217 0.306321 1.673891
0.146384 0.306285 1.673693
0.154938 0.305044 1.666912
0.164347 0.305533 1.669582
0.175215 0.308539 1.686010
0.185895 0.310927 1.699061
-0.391569 0.319794 1.696640
-0.377033 0.315422 1.673446
-0.365766 0.313635 1.663962
-0.356275 0.313317 1.662278
-0.348242 0.314299 1.667487
-0.339977 0.315120 1.671841
-0.332057 0.316313 1.678174
-0.327156 0.320534 1.700564
-0.287337 0.328346 1.742012
-0.274960 0.325015 1.724337
-0.263309 0.322335 1.710121
-0.252954 0.321102 1.703580
-0.243268 0.320656 1.701215
-0.233919 0.320636 1.701108
-0.224884 0.321063 1.703372
-0.215646 0.321225 1.704230
-0.206632 0.321751 1.707020
-0.197339 0.321871 1.707657
-0.188021 0.321960 1.708129
-0.179135 0.322836 1.712780
-0.169934 0.323212 1.714772
-0.160705 0.323575 1.716698
-0.151484 0.324000 1.718952
-0.141061 0.321739 1.706961
-0.130772 0.319486 1.695004
-0.121438 0.319399 1.694542
-0.110905 0.315880 1.675875
-0.101386 0.314877 1.670551
-0.092821 0.316930 1.681447
-0.085108 0.322669 1.711892
-0.076272 0.325040 1.724475
-0.066833 0.325155 1.725080
-0.057364 0.325137 1.724988
-0.047797 0.324447 1.721326
-0.038251 0.323594 1.716803
-0.028715 0.322294 1.709902
-0.019293 0.321642 1.706443
-0.009907 0.320906 1.702540
-0.000565 0.320584 1.700830
0.008759 0.320254 1.699082
0.018114 0.320825 1.702108
0.027498 0.321342 1.704852
0.036936 0.322068 1.708706
0.046568 0.323850 1.718160
0.056427 0.326343 1.731383
0.067855 0.335886 1.782015
0.127938 0.315275 1.672667
0.137542 0.316254 1.677861
0.146989 0.316773 1.680614
0.154789 0.313888 1.665308
0.163823 0.313691 1.664262
0.174589 0.316654 1.679980
0.185343 0.319300 1.694018
-0.387545 0.325722 1.679208
-0.375732 0.323484 1.667670
-0.364712 0.321835 1.659166
-0.356655 0.322782 1.664052
-0.349051 0.324201 1.671363
-0.340325 0.324625 1.673549
-0.331437 0.324914 1.675040
-0.325727 0.328424 1.693137
-0.287935 0.338608 1.745640
-0.274409 0.333806 1.720882
-0.263150 0.331519 1.709090
-0.252820 0.330274 1.702675
-0.243208 0.329910 1.700795
-0.233820 0.329830 1.700387
-0.224419 0.329727 1.699851
-0.215234 0.329945 1.700977
-0.206330 0.330632 1.704520
-0.197137 0.330901 1.705906
-0.187948 0.331204 1.707470
-0.179016 0.332015 1.711647
-0.169950 0.332653 1.714938
-0.160866 0.333328 1.718419
-0.151426 0.333303 1.718290
-0.141235 0.331515 1.709073
-0.131326 0.330178 1.702179
-0.121796 0.329664 1.699527
-0.110843 0.324896 1.674946
-0.101446 0.324234 1.671537
-0.092557 0.325227 1.676656
-0.084799 0.330856 1.705672
-0.076283 0.334553 1.724734
-0.066856 0.334738 1.725688
-0.057359 0.334572 1.724829
-0.047835 0.334160 1.722708
-0.038254 0.333041 1.716941
-0.028730 0.331845 1.710772
-0.019287 0.330898 1.705893
-0.009894 0.329796 1.700208
-0.000564 0.329358 1.697952
0.008756 0.329452 1.698437
0.018091 0.329736 1.699902
0.027457 0.330199 1.702286
0.036902 0.331140 1.707140
0.046523 0.332957 1.716504
0.056302 0.335102 1.727562
0.067424 0.343469 1.770696
0.127807 0.324120 1.670948
0.137818 0.326113 1.681222
0.149296 0.331109 1.706981
0.154972 0.323410 1.667285
0.163748 0.322675 1.663500
0.174595 0.325883 1.680036
0.185264 0.328455 1.693295
-0.403379 0.340525 1.707226
-0.386416 0.333960 1.674314
-0.374517 0.331559 1.662277
-0.363790 0.330102 1.654973
-0.356266 0.331551 1.662234
-0.350731 0.334976 1.679408
-0.340689 0.334165 1.675341
-0.330552 0.333213 1.670566
-0.325165 0.337132 1.690214
-0.370178 0.419714 2.104243
-0.288625 0.349021 1.749822
-0.273263 0.341816 1.713698
-0.262536 0.340100 1.705097
-0.252574 0.339286 1.701017
-0.242775 0.338638 1.697765
-0.233236 0.338315 1.696145
-0.224206 0.338733 1.698241
-0.215007 0.338920 1.699181
-0.206116 0.339634 1.702759
-0.196854 0.339774 1.703462
-0.187938 0.340554 1.707373
-0.178912 0.341209 1.710654
-0.169706 0.341571 1.712469
-0.160875 0.342776 1.718514
-0.151701 0.343355 1.721416
-0.141965 0.342654 1.717899
-0.132433 0.342381 1.716530
-0.122350 0.340531 1.707258
-0.111016 0.334607 1.677558
-0.101379 0.333186 1.670431
-0.092347 0.333671 1.672866
-0.084575 0.339314 1.701158
-0.076317 0.344169 1.725495
-0.066797 0.343901 1.724154
-0.057244 0.343351 1.721396
-0.047723 0.342803 1.718650
-0.038260 0.342517 1.717214
-0.028737 0.341322 1.711222
-0.019267 0.339895 1.704071
-0.009891 0.339044 1.699802
-0.000563 0.338129 1.695215
0.008734 0.337952 1.694326
0.018060 0.338486 1.697006
0.027442 0.339359 1.701382
0.036862 0.340131 1.705251
0.046410 0.341538 1.712306
0.056208 0.344001 1.724652
0.066932 0.350607 1.757774
0.079612 0.364503 1.827440
0.127493 0.332469 1.666840
0.137252 0.333961 1.674319
0.154966 0.332545 1.667218
0.163805 0.331917 1.664073
0.174809 0.335512 1.682095
0.185721 0.338580 1.697477
-0.520125 0.431133 2.103622
-0.404576 0.350930 1.712290
-0.387348 0.343975 1.678351
-0.374184 0.340378 1.660801
-0.363558 0.338967 1.653918
-0.355998 0.340416 1.660985
-0.351181 0.344633 1.681561
-0.339621 0.342281 1.670086
-0.329937 0.341743 1.667461
-0.324200 0.345378 1.685199
-0.376741 0.425631 2.076775
-0.364092 0.424171 2.069650
-0.286856 0.356425 1.739099
-0.272799 0.350622 1.710787
-0.262272 0.349106 1.703388
-0.251882 0.347665 1.696357
-0.242360 0.347358 1.694859
-0.233098 0.347415 1.695136
-0.223945 0.347645 1.696261
-0.214804 0.347916 1.697580
-0.205797 0.348436 1.700119
-0.196558 0.348596 1.700898
-0.187548 0.349198 1.703837
-0.178328 0.349450 1.705065
-0.169606 0.350761 1.711463
-0.160691 0.351802 1.716544
-0.151647 0.352675 1.720800
-0.142472 0.353338 1.724037
-0.133135 0.353664 1.725626
-0.123076 0.351976 1.717394
-0.111373 0.344916 1.682944
-0.101434 0.342536 1.671333
-0.092237 0.342440 1.670861
-0.084353 0.347736 1.696702
-0.076447 0.354239 1.728436
-0.066945 0.354148 1.727989
-0.057355 0.353481 1.724736
-0.047711 0.352147 1.718226
-0.038226 0.351620 1.715655
-0.028759 0.350976 1.712511
-0.019297 0.349793 1.706740
-0.009893 0.348445 1.700161
-0.000563 0.347705 1.696552
0.008726 0.346896 1.692606
0.018039 0.347385 1.694990
0.027387 0.347996 1.697974
0.036791 0.348821 1.701997
0.046299 0.350101 1.708242
0.056009 0.352213 1.718546
0.066397 0.357372 1.743722
0.127221 0.340888 1.663288
0.137263 0.343176 1.674455
0.149880 0.351211 1.713659
0.154971 0.341703 1.667269
0.164079 0.341620 1.666861
0.174950 0.345020 1.683452
-0.499966 0.425519 2.022090
-0.498569 0.433960 2.062206
-0.388321 0.354071 1.682567
-0.374502 0.349787 1.662209
-0.363755 0.348230 1.654811
-0.356516 0.350038 1.663403
-0.352309 0.354997 1.686965
-0.339539 0.351360 1.669684
-0.329408 0.350329 1.664785
-0.322908 0.353212 1.678483
-0.379618 0.440364 2.092636
-0.373978 0.447353 2.125846
-0.285534 0.364281 1.731084
-0.272802 0.360013 1.710803
-0.262172 0.358316 1.702737
-0.251464 0.356381 1.693544
-0.241789 0.355818 1.690866
-0.232753 0.356188 1.692628
-0.223761 0.356660 1.694870
-0.214510 0.356740 1.695251
-0.205370 0.357023 1.696592
-0.196172 0.357226 1.697557
-0.187374 0.358214 1.702255
-0.178527 0.359205 1.706965
-0.169530 0.359991 1.710699
-0.160695 0.361230 1.716588
-0.151463 0.361678 1.718715
-0.142445 0.362729 1.723712
-0.133614 0.364438 1.731833
-0.123976 0.364042 1.729948
-0.111756 0.355370 1.688739
-0.101484 0.351882 1.672163
-0.092448 0.352412 1.674683
-0.084672 0.358394 1.703110
-0.076724 0.365044 1.734710
-0.067095 0.364445 1.731864
-0.057406 0.363268 1.726270
-0.047815 0.362360 1.721957
-0.038234 0.361113 1.716029
-0.028725 0.359955 1.710527
-0.019292 0.359062 1.706285
-0.009902 0.358103 1.701725
-0.000564 0.357265 1.697744
0.008720 0.355937 1.691433
0.018000 0.355918 1.691341
0.027363 0.357002 1.696494
0.036743 0.357694 1.699784
0.046210 0.358777 1.704927
0.055890 0.360874 1.714892
0.066173 0.365699 1.737825
0.127435 0.350604 1.666093
0.137946 0.354118 1.682789
0.149335 0.359304 1.707434
0.154875 0.350635 1.666240
0.163929 0.350444 1.665332
0.175385 0.355140 1.687644
-0.520162 0.454251 2.103772
-0.493891 0.441098 2.042857
-0.387507 0.362542 1.679040
-0.374564 0.358968 1.662488
-0.363985 0.357536 1.655857
-0.356617 0.359267 1.663874
-0.357065 0.369170 1.709738
-0.341808 0.362931 1.680841
-0.329043 0.359066 1.662941
-0.322089 0.361502 1.674225
-0.388089 0.461929 2.139330
-0.373741 0.458727 2.124499
-0.358114 0.453697 2.101206
-0.284858 0.372894 1.726985
-0.271761 0.367992 1.704279
-0.261375 0.366541 1.697559
-0.251333 0.365483 1.692659
-0.241710 0.364977 1.690316
-0.232346 0.364838 1.689671
-0.223430 0.365419 1.692363
-0.214333 0.365741 1.693853
-0.205410 0.366404 1.696926
-0.195983 0.366188 1.695925
-0.187200 0.367212 1.700667
-0.178563 0.368646 1.707310
-0.169643 0.369623 1.711833
-0.160599 0.370429 1.715566
-0.151639 0.371539 1.720708
-0.142604 0.372602 1.725631
-0.133713 0.374221 1.733127
-0.124687 0.375678 1.739878
-0.113010 0.368728 1.707689
-0.101872 0.362436 1.678550
-0.092729 0.362702 1.679780
-0.085206 0.370058 1.713851
-0.076793 0.374898 1.736262
-0.067179 0.374414 1.734025
-0.057439 0.372950 1.727242
-0.047780 0.371541 1.720719
-0.038189 0.370097 1.714027
-0.028701 0.369030 1.709089
-0.019271 0.368032 1.704466
-0.009898 0.367283 1.700997
-0.000563 0.366315 1.696514
0.008724 0.365392 1.692240
0.017999 0.365181 1.691262
0.027294 0.365384 1.692204
0.036661 0.366198 1.695970
0.046184 0.367924 1.703964
0.055827 0.369872 1.712989
0.065935 0.373887 1.731583
0.077275 0.383002 1.773796
0.128785 0.363557 1.683742
0.138566 0.364984 1.690348
0.147125 0.363217 1.682164
0.154819 0.359647 1.665632
0.164432 0.360686 1.670443
0.176686 0.367103 1.700165
-0.535519 0.449613 2.030686
-0.391842 0.375914 1.697823
-0.375039 0.368557 1.664595
-0.363432 0.366066 1.653343
-0.356126 0.367890 1.661581
-0.357388 0.378894 1.711283
-0.347170 0.377993 1.707211
-0.331026 0.370409 1.672962
-0.322964 0.371696 1.678774
-0.385154 0.470085 2.123151
-0.373712 0.470347 2.124333
-0.283444 0.380473 1.718412
-0.271158 0.376505 1.700495
-0.261112 0.375477 1.695849
-0.251422 0.374904 1.693261
-0.241682 0.374209 1.690122
-0.232364 0.374138 1.689801
-0.223329 0.374535 1.691594
-0.214278 0.374940 1.693424
-0.205242 0.375407 1.695532
-0.196067 0.375653 1.696646
-0.187059 0.376261 1.699389
-0.178166 0.377174 1.703516
-0.169737 0.379226 1.712782
-0.160880 0.380506 1.718563
-0.151832 0.381466 1.722897
-0.142842 0.382709 1.728514
-0.133924 0.384335 1.735859
-0.125243 0.386943 1.747635
-0.115338 0.385887 1.742867
-0.103865 0.378919 1.711394
-0.094633 0.379555 1.714269
-0.086465 0.385072 1.739187
-0.076977 0.385345 1.740418
-0.067247 0.384319 1.735785
-0.057496 0.382808 1.728959
-0.047846 0.381512 1.723105
-0.038276 0.380363 1.717916
-0.028754 0.379105 1.712235
-0.019330 0.378537 1.709672
-0.009910 0.377068 1.703035
-0.000564 0.375988 1.698156
0.008729 0.374920 1.693334
0.018018 0.374860 1.693065
0.027307 0.374847 1.693005
0.036676 0.375663 1.696691
0.046143 0.376944 1.702477
0.055744 0.378704 1.710426
0.065630 0.381618 1.723585
0.076957 0.391120 1.766501
0.129522 0.374928 1.693372
0.137744 0.372038 1.680318
0.145644 0.368698 1.665234
0.155302 0.369938 1.670835
0.166857 0.375306 1.695077
-0.541703 0.466076 2.054137
-0.520516 0.467293 2.059499
-0.476947 0.458010 2.018586
-0.376846 0.379510 1.672613
-0.364415 0.376152 1.657814
-0.354727 0.375526 1.655056
-0.351480 0.381866 1.682995
-0.346687 0.386822 1.704838
-0.337340 0.386830 1.704876
-0.384770 0.467126 2.058761
-0.377334 0.471954 2.080043
-0.366099 0.472185 2.081060
-0.282404 0.388471 1.712109
-0.271153 0.385830 1.700465
-0.260661 0.384118 1.692921
-0.250870 0.383352 1.689545
-0.241438 0.383094 1.688411
-0.232251 0.383222 1.688975
-0.223150 0.383509 1.690238
-0.214218 0.384124 1.692947
-0.205020 0.384295 1.693704
-0.195900 0.384635 1.695202
-0.187032 0.385531 1.699149
-0.178537 0.387327 1.707066
-0.169761 0.388680 1.713030
-0.160548 0.389132 1.715020
-0.151857 0.390984 1.723184
-0.143099 0.392898 1.731618
-0.134022 0.394149 1.737132
-0.125202 0.396401 1.747056
-0.116225 0.398492 1.756274
-0.106832 0.399401 1.760278
-0.097109 0.399139 1.759124
-0.087151 0.397746 1.752984
-0.077274 0.396420 1.747140
-0.067210 0.393628 1.734833
-0.057482 0.392200 1.728543
-0.047851 0.391002 1.723261
-0.038281 0.389836 1.718124
-0.028769 0.388706 1.713142
-0.019318 0.387679 1.708615
-0.009928 0.387108 1.706102
-0.000564 0.385604 1.699472
0.008724 0.383964 1.692245
0.017999 0.383738 1.691245
0.027290 0.383902 1.691969
0.036653 0.384726 1.695603
0.046087 0.385814 1.700397
0.055674 0.387600 1.708269
0.065512 0.390369 1.720472
0.076709 0.399520 1.760805
0.132224 0.392236 1.728699
0.138848 0.384314 1.693788
0.148667 0.385677 1.699792
-0.537175 0.483416 2.080251
-0.497029 0.477742 2.055835
-0.489160 0.481098 2.070274
-0.378351 0.390240 1.679295
-0.367024 0.388007 1.669684
-0.356345 0.386362 1.662607
-0.346890 0.385992 1.661013
-0.339818 0.388326 1.671057
-0.333927 0.392177 1.687627
-0.334615 0.404193 1.739334
-0.382021 0.475005 2.044055
-0.374447 0.479670 2.064129
-0.297367 0.405458 1.744778
-0.281684 0.396851 1.707741
-0.271050 0.395010 1.699818
-0.260574 0.393276 1.692358
-0.250692 0.392344 1.688345
-0.240995 0.391639 1.685314
-0.231763 0.391666 1.685428
-0.222746 0.392072 1.687177
-0.213875 0.392783 1.690237
-0.204897 0.393352 1.692684
-0.196050 0.394239 1.696503
-0.187072 0.394938 1.699508
-0.178310 0.396190 1.704895
-0.169629 0.397771 1.711700
-0.160518 0.398468 1.714702
-0.152041 0.400924 1.725270
-0.143063 0.402300 1.731191
-0.134316 0.404564 1.740932
-0.125287 0.406265 1.748250
-0.116514 0.409143 1.760637
-0.107635 0.412134 1.773508
-0.097520 0.410520 1.766564
-0.087251 0.407833 1.754997
-0.077139 0.405296 1.744084
-0.067202 0.403099 1.734626
-0.057495 0.401774 1.728928
-0.047860 0.400531 1.723578
-0.038312 0.399592 1.719538
-0.028791 0.398412 1.714457
-0.019328 0.397265 1.709524
-0.009920 0.396149 1.704720
-0.000564 0.394648 1.698261
0.008715 0.392852 1.690534
0.017965 0.392290 1.688115
0.027268 0.392864 1.690583
0.036642 0.393916 1.695111
0.046122 0.395444 1.701688
0.055659 0.396867 1.707808
0.065417 0.399232 1.717987
0.076116 0.406019 1.747195
-0.518885 0.488360 2.053047
-0.492679 0.484743 2.037844
-0.479916 0.483152 2.031153
-0.469145 0.483537 2.032773
-0.364008 0.403990 1.698361
-0.350038 0.398692 1.676087
-0.340666 0.398487 1.675225
-0.333813 0.401300 1.687051
-0.331664 0.410089 1.723998
-0.381608 0.485694 2.041842
-0.376345 0.493485 2.074594
-0.294966 0.411681 1.730691
-0.281931 0.406578 1.709240
-0.271017 0.404288 1.699614
-0.260079 0.401797 1.689143
-0.250775 0.401741 1.688906
-0.241179 0.401194 1.686607
-0.231468 0.400403 1.683281
-0.222621 0.401105 1.686230
-0.213865 0.402039 1.690159
-0.204701 0.402254 1.691064
-0.195750 0.402931 1.693909
-0.187016 0.404142 1.699001
-0.178240 0.405386 1.704230
-0.169543 0.406955 1.710824
-0.160769 0.408515 1.717383
-0.152103 0.410560 1.725979
-0.143224 0.412261 1.733133
-0.134444 0.414512 1.742593
-0.125231 0.415670 1.747463
-0.116510 0.418789 1.760576
-0.108023 0.423387 1.779905
-0.097879 0.421760 1.773063
-0.087443 0.418381 1.758860
-0.077304 0.415753 1.747810
-0.067380 0.413707 1.739209
-0.057671 0.412518 1.734212
-0.047925 0.410551 1.725942
-0.038393 0.409893 1.723177
-0.028816 0.408163 1.715905
-0.019334 0.406771 1.710052
-0.009925 0.405699 1.705544
-0.000564 0.404064 1.698670
0.008719 0.402339 1.691420
0.017978 0.401843 1.689333
0.027291 0.402485 1.692033
0.036601 0.402768 1.693223
0.045993 0.403654 1.696948
0.055593 0.405761 1.705804
0.065315 0.408023 1.715314
0.075798 0.413865 1.739876
-0.537894 0.506923 2.083034
-0.522889 0.503480 2.068888
-0.512705 0.504630 2.073613
-0.497784 0.501064 2.058960
-0.483644 0.498137 2.046932
-0.444813 0.480457 1.974282
-0.396883 0.516789 2.123575
-0.373370 0.500877 2.058191
-0.293979 0.419768 1.724902
-0.281201 0.414880 1.704814
-0.270831 0.413329 1.698443
-0.259974 0.410900 1.688461
-0.250642 0.410790 1.688008
-0.240951 0.410059 1.685006
-0.231465 0.409635 1.683262
-0.222513 0.410158 1.685412
-0.213617 0.410835 1.688194
-0.204355 0.410839 1.688211
-0.195321 0.411321 1.690190
-0.186925 0.413263 1.698172
-0.178441 0.415204 1.706146
-0.169614 0.416517 1.711541
-0.160451 0.417112 1.713986
-0.151645 0.418766 1.720783
-0.143307 0.422016 1.734137
-0.134392 0.423912 1.741928
-0.125530 0.426275 1.751639
-0.116608 0.428810 1.762057
-0.107731 0.431985 1.775103
-0.097868 0.431443 1.772875
-0.087717 0.429373 1.764369
-0.077501 0.426428 1.752270
-0.067577 0.424490 1.744303
-0.057839 0.423269 1.739287
-0.048130 0.421820 1.733334
-0.038374 0.419141 1.722324
-0.028817 0.417596 1.715978
-0.019348 0.416459 1.711302
-0.009919 0.414805 1.704509
-0.000564 0.413183 1.697842
0.008717 0.411514 1.690984
0.017983 0.411213 1.689748
0.027292 0.411771 1.692040
0.036623 0.412297 1.694202
0.046011 0.413125 1.697602
0.055596 0.415142 1.705892
0.065340 0.417593 1.715965
0.075909 0.424033 1.742427
0.089127 0.442180 1.816997
-0.459496 0.520176 2.090363
-0.431235 0.500681 2.012020
-0.420044 0.528260 2.122849
-0.411100 0.531759 2.136909
-0.392621 0.522767 2.100773
-0.386890 0.530717 2.132721
-0.294315 0.429723 1.726872
-0.280900 0.423781 1.702991
-0.270162 0.421606 1.694250
-0.259777 0.419846 1.687179
-0.250110 0.419160 1.684421
-0.240486 0.418496 1.681755
-0.231537 0.419001 1.683782
-0.222579 0.419532 1.685918
-0.213392 0.419658 1.686423
-0.204587 0.420580 1.690128
-0.195568 0.421128 1.692331
-0.187218 0.423244 1.700835
-0.178696 0.425173 1.708585
-0.169859 0.426524 1.714014
-0.160922 0.427767 1.719012
-0.151857 0.428805 1.723183
-0.143002 0.430614 1.730450
-0.134321 0.433241 1.741008
-0.125719 0.436541 1.754268
-0.117005 0.439971 1.768054
-0.107913 0.442470 1.778095
-0.099186 0.447109 1.796738
-0.088072 0.440832 1.771513
-0.077677 0.437032 1.756243
-0.067673 0.434674 1.746767
-0.057956 0.433688 1.742803
-0.048154 0.431540 1.734174
-0.038424 0.429143 1.724541
-0.028856 0.427584 1.718275
-0.019358 0.426067 1.712179
-0.009911 0.423829 1.703185
-0.000563 0.421815 1.695090
0.008721 0.420969 1.691691
0.017969 0.420172 1.688489
0.027229 0.420091 1.688162
0.036579 0.421088 1.692169
0.046025 0.422571 1.698132
0.055543 0.424093 1.704247
0.065369 0.427196 1.716717
0.075755 0.432717 1.738904
-0.527054 0.519106 2.041055
-0.505562 0.520038 2.044722
-0.494621 0.520332 2.045876
-0.484868 0.521918 2.052112
-0.479894 0.528844 2.079346
-0.464197 0.524005 2.060320
-0.438026 0.506805 1.992689
-0.431873 0.512478 2.014997
-0.414074 0.504267 1.982712
-0.408302 0.510655 2.007829
-0.398831 0.512643 2.015644
-0.394191 0.521129 2.049011
-0.381789 0.519552 2.042812
-0.363288 0.509330 2.002619
-0.294211 0.439043 1.726261
-0.280755 0.432901 1.702109
-0.270063 0.430744 1.693628
-0.260107 0.429649 1.689322
-0.250409 0.428916 1.686440
-0.241040 0.428711 1.685634
-0.231693 0.428530 1.684924
-0.222683 0.428983 1.686707
-0.213830 0.429790 1.689879
-0.204820 0.430343 1.692052
-0.195530 0.430330 1.692001
-0.186996 0.432065 1.698821
-0.178693 0.434541 1.708560
-0.169746 0.435640 1.712881
-0.160820 0.436924 1.717928
-0.152106 0.438979 1.726006
-0.143205 0.440733 1.732904
-0.134398 0.443046 1.741999
-0.125795 0.446438 1.755336
-0.117361 0.451039 1.773425
-0.088566 0.453076 1.781437
-0.077983 0.448429 1.763164
-0.067860 0.445487 1.751595
-0.057929 0.443041 1.741979
-0.048179 0.441285 1.735076
-0.038442 0.438819 1.725379
-0.028875 0.437303 1.719417
-0.019373 0.435786 1.713454
-0.009910 0.433124 1.702985
-0.000564 0.432072 1.698851
0.008736 0.430976 1.694540
0.017992 0.429982 1.690632
0.027238 0.429493 1.688711
0.036579 0.430375 1.692177
0.046019 0.431830 1.697897
0.055608 0.433954 1.706251
0.065334 0.436382 1.715797
0.075590 0.441294 1.735112
0.088192 0.457271 1.797928
-0.502104 0.516169 1.986650
-0.488140 0.512951 1.974261
-0.478946 0.514712 1.981040
-0.466235 0.512688 1.973248
-0.457740 0.515313 1.983354
-0.447768 0.516364 1.987398
-0.433281 0.512131 1.971105
-0.422443 0.512104 1.971002
-0.410166 0.510284 1.963998
-0.397937 0.508429 1.956857
-0.389809 0.511856 1.970048
-0.377409 0.509708 1.961779
-0.366848 0.509990 1.962867
-0.356276 0.510276 1.963965
-0.297353 0.453305 1.744695
-0.281216 0.442966 1.704903
-0.269929 0.439819 1.692788
-0.260315 0.439270 1.690677
-0.250456 0.438251 1.686754
-0.240790 0.437504 1.683880
-0.231717 0.437820 1.685094
-0.222557 0.437990 1.685749
-0.213650 0.438693 1.688455
-0.204859 0.439711 1.692375
-0.195886 0.440416 1.695087
-0.187393 0.442321 1.702420
-0.178985 0.444641 1.711348
-0.170190 0.446202 1.717355
-0.160916 0.446617 1.718954
-0.151882 0.447789 1.723466
-0.143531 0.451268 1.736855
-0.134610 0.453318 1.744744
-0.125723 0.455809 1.754333
-0.117436 0.461068 1.774571
-0.089226 0.466302 1.794716
-0.078281 0.459855 1.769904
-0.068011 0.456109 1.755485
-0.058034 0.453423 1.745151
-0.048240 0.451378 1.737279
-0.038601 0.450143 1.732524
-0.028938 0.447715 1.723179
-0.019379 0.445336 1.714024
-0.009919 0.442871 1.704537
-0.000565 0.442469 1.702990
0.008739 0.440428 1.695133
0.017982 0.439017 1.689701
0.027271 0.439298 1.690784
0.036618 0.440126 1.693972
0.045926 0.440258 1.694479
0.055542 0.442793 1.704237
0.065240 0.445154 1.713323
0.075581 0.450763 1.734913
0.087503 0.463485 1.783877
-0.473218 0.519296 1.957347
-0.462866 0.519732 1.958990
-0.452243 0.519877 1.959536
-0.440930 0.519217 1.957049
-0.430623 0.519738 1.959012
-0.420114 0.520035 1.960133
-0.409430 0.520126 1.960475
-0.398745 0.520221 1.960833
-0.387768 0.519929 1.959732
-0.376932 0.519814 1.959300
-0.365739 0.519187 1.956936
-0.354869 0.518994 1.956208
-0.341475 0.514982 1.941085
-0.299009 0.465457 1.754412
-0.280551 0.451252 1.700871
-0.269890 0.449042 1.692543
-0.260269 0.448468 1.690378
-0.250556 0.447686 1.687431
-0.240990 0.447115 1.685281
-0.231634 0.446906 1.684490
-0.222267 0.446657 1.683553
-0.213428 0.447493 1.686703
-0.204613 0.448458 1.690341
-0.195880 0.449702 1.695029
-0.187427 0.451745 1.702730
-0.178797 0.453554 1.709550
-0.170347 0.456045 1.718939
-0.161157 0.456731 1.721523
-0.152171 0.458116 1.726743
-0.143688 0.461302 1.738755
-0.134940 0.464027 1.749025
-0.126322 0.467653 1.762690
-0.118174 0.473761 1.785716
-0.078537 0.471105 1.775701
-0.068269 0.467512 1.762158
-0.058359 0.465593 1.754925
-0.048416 0.462592 1.743614
-0.038648 0.460205 1.734617
-0.028972 0.457714 1.725229
-0.019419 0.455668 1.717516
-0.009961 0.454124 1.711696
-0.000565 0.451799 1.702933
0.008747 0.450169 1.696790
0.018033 0.449558 1.694486
0.027344 0.449766 1.695271
0.036702 0.450450 1.697849
0.046091 0.451165 1.700545
0.055649 0.453010 1.707499
0.065169 0.454062 1.711463
0.075431 0.459370 1.731470
0.087503 0.473276 1.783887
-0.387569 0.530410 1.958726
-0.376971 0.530621 1.959504
-0.366419 0.530910 1.960573
-0.355314 0.530393 1.958662
-0.342296 0.526898 1.945755
-0.299179 0.475353 1.755409
-0.281107 0.461497 1.704241
-0.270418 0.459226 1.695855
-0.260337 0.457862 1.690816
-0.250694 0.457195 1.688355
-0.240522 0.455476 1.682006
-0.231407 0.455702 1.682840
-0.222102 0.455557 1.682306
-0.213341 0.456562 1.686017
-0.204197 0.456803 1.686906
-0.196041 0.459380 1.696421
-0.187497 0.461261 1.703368
-0.178754 0.462823 1.709138
-0.170185 0.465035 1.717306
-0.161330 0.466678 1.723373
-0.152737 0.469330 1.733168
-0.143970 0.471767 1.742167
-0.135137 0.474315 1.751575
-0.126851 0.479323 1.770069
-0.117044 0.478938 1.768646
-0.079599 0.487349 1.799710
-0.068347 0.477723 1.764162
-0.058241 0.474258 1.751366
-0.048447 0.472464 1.744740
-0.038691 0.470246 1.736550
-0.029033 0.468153 1.728822
-0.019449 0.465819 1.720203
-0.009962 0.463588 1.711964
-0.000564 0.460343 1.699979
0.008744 0.459298 1.696122
0.018039 0.459005 1.695038
0.027351 0.459200 1.695758
0.036711 0.459881 1.698274
0.046119 0.460774 1.701570
0.055652 0.462408 1.707603
0.065286 0.464283 1.714531
0.075597 0.469898 1.735264
0.087284 0.481853 1.779411
-0.387770 0.541438 1.959741
-0.376747 0.541050 1.958337
-0.366075 0.541160 1.958734
-0.354982 0.540633 1.956828
-0.342025 0.537148 1.944212
-0.299396 0.485338 1.756687
-0.281336 0.471233 1.705633
-0.269970 0.467755 1.693046
-0.259920 0.466392 1.688111
-0.250188 0.465519 1.684952
-0.240352 0.464377 1.680817
-0.231420 0.464962 1.682934
-0.222331 0.465267 1.684039
-0.213232 0.465575 1.685154
-0.203923 0.465432 1.684637
-0.195710 0.467898 1.693563
-0.187532 0.470696 1.703689
-0.178675 0.471994 1.708389
-0.170080 0.474166 1.716249
-0.161376 0.476270 1.723863
-0.152781 0.478978 1.733666
-0.144190 0.482061 1.744824
-0.135612 0.485628 1.757737
-0.127193 0.490355 1.774844
-0.068711 0.490000 1.773560
-0.058429 0.485428 1.757011
-0.048513 0.482689 1.747096
-0.038659 0.479376 1.735107
-0.029072 0.478291 1.731178
-0.019469 0.475751 1.721985
-0.009958 0.472768 1.711189
-0.000566 0.470883 1.704366
0.008746 0.468747 1.696635
0.018036 0.468230 1.694765
0.027351 0.468497 1.695728
0.036661 0.468561 1.695962
0.046037 0.469283 1.698575
0.055545 0.470869 1.704316
0.065258 0.473492 1.713809
0.075679 0.479942 1.737157
0.087254 0.491448 1.778800
-0.387096 0.551232 1.956334
-0.376332 0.551188 1.956181
-0.365936 0.551697 1.957988
-0.354982 0.551371 1.956829
-0.342196 0.548090 1.945186
-0.299577 0.495276 1.757745
-0.281483 0.480842 1.706522
-0.269887 0.476898 1.692523
-0.259941 0.475692 1.688243
-0.250135 0.474663 1.684591
-0.240957 0.474793 1.685053
-0.231636 0.474640 1.684508
-0.222286 0.474411 1.683698
-0.213012 0.474333 1.683419
-0.203996 0.474848 1.685246
-0.195322 0.476244 1.690200
-0.187131 0.479018 1.700046
-0.178645 0.481287 1.708099
-0.169936 0.483173 1.714793
-0.161511 0.486135 1.725306
-0.152952 0.489039 1.735611
-0.144258 0.491867 1.745648
-0.136076 0.496966 1.763744
-0.127352 0.500719 1.777065
-0.069404 0.504776 1.791463
-0.058627 0.496745 1.762959
-0.048555 0.492705 1.748623
-0.038736 0.489868 1.738553
-0.029053 0.487474 1.730057
-0.019465 0.485106 1.721653
-0.009949 0.481739 1.709703
-0.000565 0.479937 1.703310
0.008751 0.478308 1.697528
0.018030 0.477361 1.694165
0.027342 0.477644 1.695170
0.036683 0.478163 1.697013
0.046117 0.479431 1.701511
0.055681 0.481394 1.708479
0.065428 0.484155 1.718279
0.075644 0.489249 1.736359
0.086655 0.497767 1.766587
-0.376651 0.562398 1.957838
-0.365677 0.562044 1.956606
-0.354957 0.562069 1.956693
-0.342264 0.558875 1.945573
-0.300990 0.507303 1.766038
-0.281294 0.489877 1.705375
-0.270433 0.487169 1.695948
-0.260392 0.485798 1.691175
-0.250509 0.484631 1.687113
-0.240893 0.483910 1.684603
-0.231404 0.483397 1.682817
-0.221837 0.482672 1.680293
-0.212557 0.482535 1.679817
-0.203509 0.482937 1.681217
-0.195207 0.485233 1.689210
-0.187125 0.488331 1.699993
-0.178807 0.491105 1.709651
-0.170135 0.493159 1.716802
-0.161740 0.496304 1.727749
-0.153123 0.499119 1.737548
-0.144724 0.503065 1.751284
-0.136610 0.508632 1.770665
-0.069941 0.518583 1.805306
-0.058922 0.508970 1.771841
-0.048687 0.503666 1.753378
-0.038837 0.500715 1.743105
-0.029068 0.497215 1.730921
-0.019454 0.494267 1.720659
-0.009938 0.490582 1.707830
-0.000564 0.488415 1.700287
0.008752 0.487658 1.697652
0.018025 0.486527 1.693712
0.027308 0.486342 1.693068
0.036693 0.487600 1.697449
0.046118 0.488779 1.701554
0.055722 0.491132 1.709746
0.065608 0.494938 1.722993
0.075724 0.499301 1.738183
0.087470 0.512234 1.783204
-0.376400 0.572759 1.956533
-0.365142 0.571941 1.953739
-0.354259 0.571680 1.952846
-0.342750 0.570359 1.948336
-0.282020 0.500523 1.709777
-0.270979 0.497477 1.699371
-0.260547 0.495372 1.692181
-0.250359 0.493592 1.686102
-0.240523 0.492397 1.682019
-0.231153 0.492096 1.680991
-0.221409 0.490942 1.677050
-0.212183 0.490888 1.676865
-0.203230 0.491488 1.678912
-0.195155 0.494370 1.688757
-0.187077 0.497531 1.699556
-0.178859 0.500630 1.710142
-0.170413 0.503401 1.719606
-0.161952 0.506449 1.730018
-0.153299 0.509237 1.739543
-0.145063 0.513875 1.755388
-0.138118 0.524070 1.790213
-0.059410 0.522985 1.786505
-0.048858 0.515085 1.759521
-0.038766 0.509352 1.739935
-0.029072 0.506789 1.731180
-0.019412 0.502614 1.716918
-0.009941 0.500113 1.708375
-0.000565 0.498341 1.702321
0.008752 0.497016 1.697797
0.018035 0.496104 1.694683
0.027378 0.496903 1.697412
0.036760 0.497829 1.700574
0.046149 0.498445 1.702677
0.055816 0.501362 1.712644
0.065626 0.504535 1.723481
0.075992 0.510639 1.744332
0.087839 0.524220 1.790724
-0.375973 0.582834 1.954317
-0.364832 0.582168 1.952085
-0.354224 0.582337 1.952650
-0.343201 0.581814 1.950897
-0.283009 0.511694 1.715777
-0.270795 0.506457 1.698216
-0.260350 0.504276 1.690903
-0.250716 0.503560 1.688502
-0.240655 0.501901 1.682940
-0.230816 0.500590 1.678544
-0.221328 0.499963 1.676442
-0.212027 0.499722 1.675633
-0.203270 0.500799 1.679244
-0.195189 0.503723 1.689047
-0.186961 0.506542 1.698501
-0.178781 0.509793 1.709402
-0.170760 0.513881 1.723111
-0.162367 0.517265 1.734455
-0.153878 0.520741 1.746113
-0.145959 0.526743 1.766236
-0.059978 0.537885 1.803600
-0.048962 0.525861 1.763280
-0.038884 0.520470 1.745204
-0.029083 0.516482 1.731832
-0.019389 0.511437 1.714914
-0.009929 0.508878 1.706334
-0.000565 0.507851 1.702892
0.008740 0.505589 1.695304
0.018024 0.505075 1.693582
0.027378 0.506216 1.697409
0.036778 0.507400 1.701379
0.046272 0.509146 1.707232
0.055875 0.511295 1.714437
0.065712 0.514661 1.725723
0.076275 0.522151 1.750840
0.088661 0.539046 1.807490
-0.375455 0.592739 1.951621
-0.365362 0.593739 1.954916
-0.354314 0.593202 1.953146
-0.342770 0.591774 1.948447
-0.283483 0.521981 1.718647
-0.271200 0.516548 1.700761
-0.260946 0.514730 1.694774
-0.250956 0.513318 1.690125
-0.240422 0.510640 1.681308
-0.230896 0.509977 1.679125
-0.221606 0.509801 1.678544
-0.212291 0.509549 1.677715
-0.203391 0.510317 1.680243
-0.194925 0.512299 1.686769
-0.186446 0.514442 1.693826
-0.178736 0.519040 1.708964
-0.170845 0.523597 1.723968
-0.162646 0.527686 1.737433
-0.154350 0.531949 1.751469
-0.147276 0.541273 1.782168
-0.049137 0.537451 1.769584
-0.038964 0.531142 1.748812
-0.029097 0.526236 1.732657
-0.019412 0.521473 1.716976
-0.009935 0.518536 1.707305
-0.000565 0.517078 1.702504
0.008753 0.515694 1.697949
0.018067 0.515622 1.697711
0.027397 0.515880 1.698562
0.036756 0.516430 1.700372
0.046302 0.518853 1.708351
0.055888 0.520826 1.714846
0.065676 0.523847 1.724792
0.076325 0.532104 1.751979
-0.375775 0.603963 1.953288
-0.365000 0.603868 1.952981
-0.354356 0.603991 1.953380
-0.342520 0.602027 1.947028
-0.326062 0.591550 1.913145
-0.283480 0.531406 1.718632
-0.271248 0.525972 1.701058
-0.260862 0.523860 1.694227
-0.251163 0.523022 1.691517
-0.240833 0.520755 1.684185
-0.231026 0.519482 1.680068
-0.221476 0.518708 1.677564
-0.212123 0.518344 1.676387
-0.203334 0.519391 1.679772
-0.194835 0.521313 1.685987
-0.186362 0.523499 1.693059
-0.178269 0.527038 1.704506
-0.170786 0.532871 1.723370
-0.163049 0.538551 1.741738
-0.154614 0.542488 1.754472
-0.147792 0.552982 1.788411
-0.049510 0.551313 1.783011
-0.039026 0.541592 1.751575
-0.029088 0.535576 1.732118
-0.019400 0.530552 1.715870
-0.009908 0.526460 1.702635
-0.000565 0.526340 1.702248
0.008755 0.525105 1.698254
0.018078 0.525251 1.698724
0.027411 0.525482 1.699471
0.036776 0.526053 1.701318
0.046279 0.527960 1.707487
0.056043 0.531705 1.719597
0.065829 0.534548 1.728792
0.076430 0.542461 1.754384
-0.375695 0.614550 1.952873
-0.365043 0.614656 1.953210
-0.353853 0.613837 1.950608
-0.342652 0.612947 1.947778
-0.328443 0.606444 1.927113
-0.285504 0.544697 1.730900
-0.271443 0.535693 1.702286
-0.260814 0.533058 1.693914
-0.250664 0.531245 1.688154
-0.240766 0.529850 1.683718
-0.231075 0.528814 1.680428
-0.221325 0.527552 1.676416
-0.212197 0.527727 1.676973
-0.203391 0.528757 1.680247
-0.194656 0.530077 1.684441
-0.186279 0.532551 1.692302
-0.178395 0.536769 1.705707
-0.171131 0.543425 1.726856
-0.163322 0.549025 1.744653
-0.154945 0.553297 1.758227
-0.050170 0.568576 1.806781
-0.039137 0.552773 1.756562
-0.029143 0.546102 1.735364
-0.019414 0.540350 1.717085
-0.009913 0.536068 1.703478
-0.000564 0.535089 1.700366
0.008751 0.534223 1.697615
0.018063 0.534121 1.697292
0.027402 0.534615 1.698860
0.036809 0.535858 1.702812
0.046276 0.537297 1.707383
0.055990 0.540635 1.717990
0.065968 0.545188 1.732460
0.076892 0.555427 1.764998
-0.375542 0.625011 1.952077
-0.364657 0.624713 1.951148
-0.353743 0.624345 1.949998
-0.343419 0.625029 1.952134
-0.329888 0.619734 1.935597
-0.287600 0.558263 1.743607
-0.272211 0.546575 1.707102
-0.261885 0.544580 1.700871
-0.250637 0.540451 1.687975
-0.240492 0.538474 1.681799
-0.230624 0.536983 1.677144
-0.221266 0.536607 1.675968
-0.212085 0.536646 1.676091
-0.203348 0.537862 1.679887
-0.194523 0.538952 1.683292
-0.186627 0.542848 1.695461
-0.178756 0.547235 1.709163
-0.171213 0.553164 1.727681
-0.163810 0.560266 1.749862
-0.157015 0.570465 1.781714
-0.039253 0.564075 1.761758
-0.029149 0.555756 1.735774
-0.019429 0.550217 1.718475
-0.009933 0.546511 1.706901
-0.000564 0.543956 1.698922
0.008754 0.543672 1.698035
0.018071 0.543664 1.698009
0.027399 0.543890 1.698716
0.036843 0.545710 1.704400
0.046357 0.547615 1.710351
0.056050 0.550646 1.719816
0.066085 0.555679 1.735535
0.077284 0.567994 1.773997
-0.375353 0.635401 1.951091
-0.364847 0.635750 1.952162
-0.353623 0.634830 1.949337
-0.343555 0.635993 1.952909
-0.330960 0.632403 1.941886
-0.272357 0.556239 1.708013
-0.261444 0.552980 1.698004
-0.251093 0.550712 1.691041
-0.240613 0.547977 1.682644
-0.230635 0.546214 1.677229
-0.221081 0.545349 1.674572
-0.212159 0.546034 1.676677
-0.203704 0.548039 1.682832
-0.194840 0.549081 1.686034
-0.186552 0.551931 1.694785
-0.178568 0.556027 1.707360
-0.170981 0.561883 1.725343
-0.164601 0.572619 1.758311
-0.158458 0.585574 1.798090
-0.039165 0.572460 1.757822
-0.029092 0.564161 1.732338
-0.019447 0.560158 1.720046
-0.009951 0.556880 1.709981
-0.000565 0.554166 1.701646
0.008770 0.554009 1.701167
0.018099 0.553843 1.700654
0.027458 0.554396 1.702353
0.036864 0.555377 1.705367
0.046578 0.559665 1.718531
0.056378 0.563357 1.729868
0.066507 0.568812 1.746619
0.078335 0.585581 1.798110
-0.375934 0.647108 1.954115
-0.364641 0.646097 1.951061
-0.353384 0.645090 1.948020
-0.342788 0.645265 1.948548
-0.331221 0.643565 1.943414
-0.273002 0.566951 1.712060
-0.261874 0.563223 1.700800
-0.251256 0.560354 1.692139
-0.240542 0.557047 1.682151
-0.230622 0.555386 1.677135
-0.221252 0.554964 1.675862
-0.211928 0.554629 1.674848
-0.203622 0.557047 1.682152
-0.195115 0.559120 1.688412
-0.186956 0.562446 1.698456
-0.178797 0.566119 1.709547
-0.171565 0.573301 1.731234
-0.164543 0.582065 1.757699
-0.158181 0.594398 1.794943
-0.039289 0.583951 1.763395
-0.029172 0.575242 1.737094
-0.019477 0.570463 1.722665
-0.009957 0.566630 1.711090
-0.000565 0.563720 1.702303
0.008762 0.562817 1.699576
0.018084 0.562724 1.699295
0.027421 0.562970 1.700037
0.036933 0.565799 1.708580
0.046686 0.570404 1.722487
0.056702 0.576144 1.739818
0.066942 0.582177 1.758039
-0.375705 0.657429 1.952922
-0.364290 0.656170 1.949181
-0.353603 0.656186 1.949228
-0.342644 0.655681 1.947730
-0.331971 0.655711 1.947818
-0.317388 0.647761 1.924203
-0.276218 0.583135 1.732228
-0.262619 0.574185 1.705641
-0.251215 0.569548 1.691868
-0.240447 0.566052 1.681484
-0.230839 0.565118 1.678708
-0.221363 0.564444 1.676705
-0.212196 0.564533 1.676969
-0.203737 0.566598 1.683104
-0.195116 0.568387 1.688419
-0.186771 0.571200 1.696774
-0.178955 0.576009 1.711061
-0.171970 0.584176 1.735321
-0.165188 0.594028 1.764586
-0.039684 0.599597 1.781130
-0.029237 0.586078 1.740971
-0.019504 0.580718 1.725048
-0.009964 0.576409 1.712247
-0.000567 0.574578 1.706809
0.008771 0.572737 1.701340
0.018095 0.572379 1.700278
0.027459 0.573099 1.702417
0.036991 0.576077 1.711261
0.046855 0.581962 1.728745
0.056928 0.588030 1.746768
0.068008 0.601250 1.786039
0.080606 0.622868 1.850258
-0.374944 0.666791 1.948965
-0.364071 0.666465 1.948011
-0.353231 0.666180 1.947179
-0.342422 0.665937 1.946469
-0.331898 0.666251 1.947387
-0.319968 0.663671 1.939845
-0.263698 0.585941 1.712648
-0.251921 0.580458 1.696622
-0.240817 0.576165 1.684075
-0.231008 0.574750 1.679938
-0.221725 0.574582 1.679446
-0.212389 0.574257 1.678497
-0.203603 0.575455 1.681999
-0.194905 0.577027 1.686594
-0.187034 0.581329 1.699166
-0.179457 0.587040 1.715860
-0.172079 0.594074 1.736419
-0.165842 0.606101 1.771575
-0.040262 0.618237 1.807047
-0.029423 0.599428 1.752068
-0.019630 0.594017 1.736252
-0.009991 0.587409 1.716939
-0.000568 0.584875 1.709531
0.008789 0.583306 1.704947
0.018115 0.582345 1.702137
0.027482 0.582940 1.703876
0.037036 0.586168 1.713312
0.046979 0.593007 1.733302
0.057056 0.598958 1.750696
0.068360 0.614209 1.795274
0.079873 0.627262 1.833427
-0.374740 0.677118 1.947907
-0.364355 0.677682 1.949531
-0.353569 0.677513 1.949043
-0.342938 0.677637 1.949402
-0.331745 0.676624 1.946487
-0.320652 0.675756 1.943991
-0.304016 0.662744 1.906558
-0.265285 0.598922 1.722956
-0.252017 0.589992 1.697267
-0.241233 0.586416 1.686980
-0.230978 0.583893 1.679721
-0.221494 0.583190 1.677701
-0.212222 0.583007 1.677174
-0.203690 0.584935 1.682718
-0.195362 0.587657 1.690551
-0.187600 0.592440 1.704309
-0.180053 0.598435 1.721557
-0.172682 0.605718 1.742507
-0.165772 0.615561 1.770823
-0.040614 0.633646 1.822851
-0.029639 0.613512 1.764927
-0.019680 0.605059 1.740611
-0.010050 0.600347 1.727057
-0.000570 0.596416 1.715747
0.008797 0.593171 1.706413
0.018131 0.592232 1.703711
0.027576 0.594311 1.709692
0.037173 0.597777 1.719664
0.046991 0.602672 1.733746
0.056907 0.606972 1.746116
0.068247 0.623030 1.792310
0.079450 0.633948 1.823719
-0.374962 0.688214 1.949062
-0.364441 0.688542 1.949993
-0.354093 0.689227 1.951932
-0.343550 0.689562 1.952881
-0.332278 0.688411 1.949620
-0.320666 0.686454 1.944078
-0.264814 0.607295 1.719896
-0.251597 0.598305 1.694435
-0.241541 0.596434 1.689137
-0.231357 0.594083 1.682478
-0.221836 0.593309 1.680285
-0.212640 0.593375 1.680473
-0.204194 0.595638 1.686881
-0.195845 0.598409 1.694730
-0.188195 0.603697 1.709706
-0.180739 0.610199 1.728120
-0.172818 0.615761 1.743870
-0.166037 0.626277 1.773654
-0.029822 0.627037 1.775806
-0.019782 0.617809 1.749671
-0.010065 0.610738 1.729645
-0.000570 0.606359 1.717245
0.008813 0.603647 1.709563
0.018211 0.604209 1.711157
0.027643 0.605155 1.713835
0.037172 0.607196 1.719615
0.046780 0.609435 1.725957
0.056674 0.614023 1.738950
0.068091 0.631413 1.788198
-0.372468 0.714643 1.992940
-0.361617 0.714809 1.993404
-0.351983 0.717468 2.000820
-0.340186 0.715747 1.996018
-0.329112 0.715482 1.995281
-0.263863 0.614516 1.713715
-0.252056 0.608711 1.697527
-0.241803 0.606358 1.690964
-0.231488 0.603655 1.683426
-0.221907 0.602722 1.680825
-0.212751 0.602911 1.681352
-0.204223 0.604979 1.687118
-0.196334 0.609226 1.698963
-0.188870 0.615278 1.715840
-0.180880 0.620163 1.729463
-0.172986 0.625938 1.745566
-0.166062 0.636107 1.773926
-0.029877 0.637956 1.779083
-0.019895 0.630975 1.759614
-0.010164 0.626311 1.746608
-0.000573 0.619228 1.726855
0.008834 0.614494 1.713654
0.018240 0.614600 1.713950
0.027700 0.615828 1.717374
0.037154 0.616333 1.718782
0.046732 0.618272 1.724188
0.056531 0.622000 1.734587
0.067450 0.635188 1.771363
-0.379376 0.739035 2.029901
-0.368354 0.739269 2.030544
-0.357282 0.739413 2.030941
-0.346112 0.739357 2.030787
-0.334454 0.738222 2.027668
-0.317490 0.724892 1.991057
-0.263867 0.623930 1.713743
-0.251516 0.616704 1.693896
-0.241247 0.614221 1.687077
-0.231710 0.613480 1.685042
-0.222301 0.613032 1.683809
-0.213662 0.614760 1.688556
-0.205049 0.616721 1.693944
-0.197388 0.621867 1.708079
-0.189366 0.626335 1.720350
-0.180442 0.628129 1.725276
-0.172521 0.633810 1.740882
-0.166507 0.647572 1.778680
-0.029914 0.648532 1.781318
-0.019907 0.641039 1.760737
-0.010232 0.640156 1.758312
-0.000582 0.637969 1.752305
0.008934 0.630960 1.733053
0.018327 0.626971 1.722097
0.027704 0.625331 1.717593
0.037123 0.625248 1.717365
0.046712 0.627469 1.723465
0.056405 0.630110 1.730718
0.067125 0.641807 1.762846
-0.379237 0.749898 2.029156
-0.368338 0.750377 2.030454
-0.357491 0.750996 2.032129
-0.346326 0.750964 2.032042
-0.334473 0.749390 2.027783
-0.263250 0.631852 1.709736
-0.251584 0.626167 1.694351
-0.241255 0.623499 1.687134
-0.231958 0.623393 1.686846
-0.223510 0.625655 1.692965
-0.214932 0.627733 1.698590
-0.206408 0.630165 1.705170
-0.198466 0.634687 1.717405
-0.189624 0.636642 1.722696
-0.180663 0.638377 1.727391
-0.172966 0.645022 1.745372
-0.166561 0.657542 1.779249
-0.029936 0.658779 1.782598
-0.019925 0.651272 1.762283
-0.010211 0.648494 1.754768
-0.000583 0.648563 1.754954
0.009042 0.648190 1.753943
0.018397 0.638858 1.728692
0.027710 0.634891 1.717958
0.037133 0.634836 1.717809
0.046688 0.636596 1.722572
0.056516 0.640866 1.734126
0.067422 0.654356 1.770630
0.082404 0.699031 1.891515
-0.379387 0.761334 2.029960
-0.368742 0.762353 2.032680
-0.357681 0.762552 2.033209
-0.346125 0.761672 2.030862
-0.334495 0.760565 2.027912
-0.262744 0.640001 1.706448
-0.250810 0.633509 1.689140
-0.241252 0.632749 1.687114
-0.232297 0.633575 1.689316
-0.224087 0.636584 1.697338
-0.216203 0.640822 1.708638
-0.207399 0.642590 1.713353
-0.198391 0.643869 1.716763
-0.189518 0.645731 1.721727
-0.180902 0.648714 1.729681
-0.173580 0.656923 1.751568
-0.166330 0.666379 1.776780
-0.030415 0.679261 1.811129
-0.020025 0.664272 1.771163
-0.010235 0.659651 1.758841
-0.000582 0.657911 1.754203
0.009042 0.657860 1.754065
0.018489 0.651578 1.737316
0.027836 0.647247 1.725769
0.037221 0.645792 1.721889
0.046814 0.647793 1.727225
0.056673 0.652185 1.738934
0.067376 0.663620 1.769426
-0.379445 0.772590 2.030270
-0.368071 0.772101 2.028984
-0.357097 0.772445 2.029888
-0.346321 0.773254 2.032014
-0.334065 0.770701 2.025306
-0.263019 0.650046 1.708239
-0.251221 0.643830 1.691905
-0.241704 0.643209 1.690272
-0.232413 0.643166 1.690159
-0.224327 0.646591 1.699159
-0.216886 0.652252 1.714036
-0.207475 0.652232 1.713984
-0.197935 0.651787 1.712816
-0.189087 0.653689 1.717813
-0.181161 0.659147 1.732155
-0.174148 0.668713 1.757295
-0.020080 0.675851 1.776053
-0.010277 0.672061 1.766093
-0.000584 0.668879 1.757731
0.009052 0.668180 1.755894
0.018510 0.661856 1.739275
0.027906 0.658383 1.730150
0.037375 0.657946 1.729000
0.046951 0.659194 1.732279
0.056659 0.661557 1.738490
0.066819 0.667761 1.754792
-0.379192 0.783208 2.028916
-0.367843 0.782747 2.027724
-0.356849 0.783039 2.028480
-0.346054 0.783799 2.030449
-0.334327 0.782427 2.026893
-0.263152 0.659751 1.709099
-0.251959 0.655032 1.696875
-0.241699 0.652471 1.690240
-0.232932 0.653895 1.693928
-0.224745 0.657134 1.702320
-0.217204 0.662625 1.716544
-0.207520 0.661779 1.714354
-0.198347 0.662562 1.716382
-0.189581 0.664849 1.722305
-0.181872 0.671275 1.738952
-0.174927 0.681392 1.765161
-0.020339 0.694416 1.798900
-0.010309 0.683886 1.771621
-0.000584 0.678902 1.758709
0.009040 0.676955 1.753667
0.018560 0.673212 1.743969
0.028024 0.670697 1.737456
0.037476 0.669246 1.733695
0.047080 0.670533 1.737030
0.056743 0.672097 1.741081
0.067000 0.679233 1.759568
0.078859 0.698755 1.810141
-0.390693 0.795090 2.030832
-0.378042 0.791932 2.022763
-0.366690 0.791385 2.021368
-0.356159 0.792633 2.024554
-0.344793 0.792044 2.023050
-0.333448 0.791464 2.021568
-0.263846 0.670894 1.713607
-0.252723 0.666358 1.702020
-0.242367 0.663574 1.694910
-0.233361 0.664411 1.697047
-0.224923 0.667005 1.703673
-0.216694 0.670468 1.712518
-0.207514 0.671168 1.714307
-0.198727 0.673265 1.719663
-0.190702 0.678286 1.732489
-0.183425 0.686630 1.753800
-0.177192 0.700025 1.788013
-0.010380 0.698394 1.783848
-0.000587 0.692646 1.769166
0.009066 0.688556 1.758721
0.018625 0.685181 1.750099
0.028206 0.684644 1.748729
0.037573 0.680506 1.738159
0.047211 0.681960 1.741872
0.056804 0.682382 1.742950
0.067135 0.690267 1.763090
0.079054 0.710446 1.814631
0.093612 0.747165 1.908421
-0.263831 0.680259 1.713512
-0.252598 0.675364 1.701182
-0.242653 0.673668 1.696910
-0.233922 0.675344 1.701131
-0.225914 0.679332 1.711178
-0.216965 0.680712 1.714653
-0.208401 0.683485 1.721637
-0.200276 0.688023 1.733069
-0.192352 0.693743 1.747476
-0.183880 0.697981 1.758152
-0.010427 0.711393 1.791936
-0.000589 0.703782 1.772764
0.009094 0.700320 1.764045
0.018691 0.697240 1.756287
0.028257 0.695505 1.751915
0.037746 0.693216 1.746149
0.047281 0.692542 1.744453
0.056778 0.691632 1.742159
0.066948 0.698000 1.758200
0.078219 0.712796 1.795469
0.090834 0.735152 1.851782
-0.264464 0.691314 1.717619
-0.252601 0.684707 1.701203
-0.242935 0.683774 1.698885
-0.233870 0.684526 1.700753
-0.226540 0.690629 1.715917
-0.217740 0.692586 1.720779
-0.208992 0.694894 1.726515
-0.200867 0.699592 1.738185
-0.192457 0.703716 1.748432
-0.184380 0.709552 1.762932
-0.010585 0.732103 1.818961
-0.000590 0.715297 1.777207
0.009131 0.712874 1.771186
0.018765 0.709667 1.763217
0.028346 0.707320 1.757387
0.037875 0.705210 1.752145
0.047447 0.704578 1.750575
0.056963 0.703469 1.747818
0.067111 0.709369 1.762477
0.077932 0.719990 1.788865
0.089526 0.734580 1.825116
-0.284557 0.728034 1.784524
-0.265093 0.702408 1.721709
-0.252905 0.694876 1.703249
-0.243536 0.694809 1.703083
-0.235179 0.697741 1.710271
-0.227169 0.701988 1.720680
-0.217840 0.702353 1.721575
-0.209084 0.704679 1.727278
-0.200915 0.709300 1.738605
-0.192432 0.713214 1.748198
-0.186970 0.729328 1.787696
-0.000594 0.729707 1.788624
0.009169 0.725626 1.778620
0.018763 0.719280 1.763067
0.028342 0.716886 1.757198
0.037943 0.716101 1.755273
0.047514 0.715201 1.753067
0.057194 0.715961 1.754932
0.067159 0.719556 1.763742
0.077720 0.727822 1.784004
0.088690 0.737642 1.808074
0.103051 0.770855 1.889484
-0.280771 0.728008 1.760779
-0.265092 0.711851 1.721701
-0.253735 0.706532 1.708836
-0.244333 0.706459 1.708660
-0.236200 0.710194 1.717693
-0.227635 0.712890 1.724213
-0.218465 0.713841 1.726512
-0.209386 0.715187 1.729768
-0.201414 0.720626 1.742922
-0.193779 0.727867 1.760437
-0.000600 0.746903 1.806477
0.009208 0.738483 1.786113
0.018855 0.732515 1.771678
0.028478 0.730004 1.765605
0.038097 0.728679 1.762400
0.047652 0.726914 1.758133
0.057355 0.727632 1.759868
0.067248 0.730191 1.766057
0.077416 0.734724 1.777022
0.088093 0.742537 1.795918
0.101118 0.766573 1.854053
-0.279168 0.733460 1.750729
-0.266136 0.724140 1.728482
-0.254273 0.717428 1.712463
-0.244548 0.716464 1.710161
-0.235970 0.718919 1.716020
-0.227352 0.721452 1.722066
-0.219030 0.725184 1.730976
-0.210348 0.728008 1.737716
-0.202328 0.733501 1.750829
-0.195272 0.743209 1.774000
-0.191123 0.765583 1.827405
-0.000600 0.756681 1.806157
0.009231 0.750199 1.790684
0.018955 0.746183 1.781099
0.028561 0.741852 1.770761
0.038158 0.739539 1.765239
0.047818 0.739138 1.764283
0.057513 0.739310 1.764692
0.067423 0.741806 1.770652
0.077059 0.741046 1.768836
0.087795 0.749841 1.789831
0.100709 0.773600 1.846542
