# .PCD v0.7 - Point Cloud Data file format
VERSION 0.7
FIELDS x y z
SIZE 4 4 4
TYPE F F F
COUNT 1 1 1
WIDTH 1727
HEIGHT 1
VIEWPOINT 0 0 0 1 0 0 0
POINTS 1727
DATA ascii
-0.176323 0.003245 1.685893
-0.166271 0.003230 1.677811
-0.156202 0.003212 1.668599
-0.146589 0.003202 1.663406
-0.137020 0.003192 1.658057
-0.127765 0.003188 1.656024
-0.118296 0.003177 1.650688
-0.109010 0.003171 1.647237
-0.099847 0.003167 1.645193
-0.090777 0.003165 1.644413
-0.081831 0.003168 1.645962
-0.072826 0.003169 1.646580
-0.063811 0.003170 1.647077
-0.054709 0.003167 1.645142
-0.045743 0.003171 1.647341
-0.036741 0.003174 1.649029
-0.027702 0.003175 1.649599
-0.018687 0.003181 1.652820
-0.009643 0.003190 1.657210
-0.000551 0.003194 1.659241
0.008577 0.003202 1.663740
0.017781 0.003216 1.670838
0.027080 0.003232 1.678904
0.036474 0.003248 1.687317
0.046122 0.003276 1.701699
0.056883 0.003360 1.745363
0.067739 0.003424 1.778961
0.116729 0.003430 1.781766
0.125420 0.003400 1.766468
0.134562 0.003386 1.759271
0.144203 0.003386 1.759120
0.153716 0.003383 1.757523
0.163490 0.003386 1.758927
0.173389 0.003391 1.761441
0.183794 0.003404 1.768560
0.197918 0.003482 1.808956
-0.338580 0.013428 1.811620
-0.327525 0.013382 1.805476
-0.317502 0.013377 1.804811
-0.307473 0.013372 1.804076
-0.297732 0.013379 1.805035
-0.288537 0.013412 1.809481
-0.279804 0.013469 1.817249
-0.272582 0.013607 1.835768
-0.238772 0.013405 1.808569
-0.223407 0.013086 1.765567
-0.209697 0.012840 1.732340
-0.198231 0.012714 1.715372
-0.186836 0.012581 1.697361
-0.176028 0.012475 1.683075
-0.166095 0.012423 1.676035
-0.156301 0.012375 1.669648
-0.146494 0.012321 1.662329
-0.136972 0.012285 1.657479
-0.127549 0.012254 1.653221
-0.118330 0.012238 1.651166
-0.109013 0.012210 1.647290
-0.099784 0.012186 1.644146
-0.090794 0.012191 1.644718
-0.081793 0.012194 1.645211
-0.072688 0.012181 1.643453
-0.063630 0.012174 1.642420
-0.054704 0.012193 1.645018
-0.045718 0.012204 1.646458
-0.036698 0.012208 1.647081
-0.027713 0.012231 1.650217
-0.018678 0.012244 1.651985
-0.009628 0.012264 1.654641
-0.000551 0.012298 1.659239
0.008586 0.012345 1.665540
0.017788 0.012389 1.671495
0.027117 0.012461 1.681250
0.036562 0.012536 1.691380
0.046230 0.012643 1.705690
0.056754 0.012907 1.741410
0.067702 0.013178 1.777992
0.117130 0.013252 1.787879
0.125685 0.013121 1.770193
0.134714 0.013054 1.761255
0.144119 0.013031 1.758096
0.153900 0.013042 1.759627
0.163377 0.013028 1.757708
0.172922 0.013021 1.756697
0.183117 0.013060 1.762038
0.194892 0.013203 1.781294
-0.351444 0.023564 1.826816
-0.337410 0.023287 1.805355
-0.326422 0.023211 1.799394
-0.317246 0.023262 1.803357
-0.308411 0.023342 1.809579
-0.298697 0.023359 1.810882
-0.288950 0.023374 1.812074
-0.280565 0.023505 1.822195
-0.274238 0.023824 1.846921
-0.238819 0.023333 1.808924
-0.222993 0.022732 1.762296
-0.210083 0.022387 1.735528
-0.198610 0.022169 1.718651
-0.187083 0.021923 1.699609
-0.176464 0.021764 1.687248
-0.165741 0.021573 1.672467
-0.156019 0.021498 1.666643
-0.146224 0.021403 1.659262
-0.136842 0.021360 1.655904
-0.127547 0.021325 1.653195
-0.118226 0.021280 1.649712
-0.109226 0.021290 1.650507
-0.099861 0.021224 1.645420
-0.090677 0.021188 1.642606
-0.081656 0.021186 1.642451
-0.072696 0.021201 1.643626
-0.063551 0.021159 1.640376
-0.054593 0.021176 1.641652
-0.045576 0.021172 1.641325
-0.036618 0.021200 1.643499
-0.027659 0.021245 1.647049
-0.018685 0.021317 1.652618
-0.009635 0.021358 1.655774
-0.000551 0.021393 1.658520
0.008590 0.021494 1.666331
0.017818 0.021597 1.674280
0.027210 0.021761 1.687000
0.036706 0.021904 1.698067
0.046370 0.022068 1.710827
0.056718 0.022449 1.740321
0.067634 0.022911 1.776201
0.117387 0.023113 1.791807
0.125871 0.022868 1.772816
0.134757 0.022726 1.761818
0.144245 0.022698 1.759627
0.153935 0.022703 1.760025
0.163294 0.022661 1.756816
0.172838 0.022649 1.755836
0.182464 0.022648 1.755758
0.192685 0.022717 1.761125
-0.349176 0.033371 1.815024
-0.336204 0.033075 1.798906
-0.326105 0.033052 1.797648
-0.316988 0.033130 1.801894
-0.308448 0.033275 1.809795
-0.298488 0.033272 1.809621
-0.289124 0.033337 1.813164
-0.281274 0.033588 1.826795
-0.275834 0.034155 1.857665
-0.239524 0.033358 1.814268
-0.223140 0.032423 1.763459
-0.210122 0.031916 1.735849
-0.198995 0.031661 1.721985
-0.188207 0.031437 1.709822
-0.176993 0.031115 1.692303
-0.165464 0.030699 1.669672
-0.155736 0.030588 1.663621
-0.146191 0.030501 1.658892
-0.136632 0.030399 1.653372
-0.127394 0.030360 1.651221
-0.118126 0.030306 1.648316
-0.108921 0.030262 1.645900
-0.099873 0.030257 1.645616
-0.090767 0.030231 1.644243
-0.081631 0.030189 1.641947
-0.072658 0.030204 1.642774
-0.063631 0.030198 1.642452
-0.054633 0.030206 1.642855
-0.045637 0.030218 1.643529
-0.036674 0.030264 1.646020
-0.027671 0.030295 1.647719
-0.018673 0.030366 1.651549
-0.009625 0.030412 1.654079
-0.000551 0.030497 1.658671
0.008610 0.030707 1.670102
0.017873 0.030879 1.679464
0.027271 0.031087 1.690764
0.036807 0.031307 1.702737
0.046577 0.031596 1.718463
0.056823 0.032057 1.743530
0.068009 0.032839 1.786051
0.126049 0.032641 1.775323
0.135024 0.032457 1.765301
0.144365 0.032380 1.761092
0.153999 0.032374 1.760762
0.162997 0.032242 1.753622
0.172473 0.032215 1.752137
0.181713 0.032149 1.748536
0.192141 0.032289 1.756152
0.207185 0.033154 1.803216
-0.347236 0.043090 1.804941
-0.335300 0.042830 1.794069
-0.325704 0.042863 1.795434
-0.316985 0.043017 1.801877
-0.308590 0.043226 1.810630
-0.299003 0.043276 1.812743
-0.289229 0.043302 1.813820
-0.281569 0.043658 1.828717
-0.279681 0.044967 1.883574
-0.224040 0.042269 1.770571
-0.210221 0.041460 1.736668
-0.198876 0.041085 1.720954
-0.188913 0.040972 1.716230
-0.177526 0.040523 1.697398
-0.166292 0.040060 1.678025
-0.156345 0.039871 1.670123
-0.146323 0.039639 1.660393
-0.136985 0.039573 1.657639
-0.127445 0.039436 1.651885
-0.118163 0.039363 1.648843
-0.109017 0.039328 1.647345
-0.099903 0.039298 1.646116
-0.090699 0.039224 1.643011
-0.081647 0.039207 1.642274
-0.072669 0.039224 1.643013
-0.063740 0.039278 1.645254
-0.054623 0.039214 1.642577
-0.045634 0.039234 1.643437
-0.036665 0.039286 1.645620
-0.027678 0.039346 1.648132
-0.018715 0.039517 1.655260
-0.009655 0.039608 1.659111
-0.000552 0.039712 1.663450
0.008648 0.040049 1.677555
0.017962 0.040293 1.687765
0.027333 0.040456 1.694614
0.036967 0.040826 1.710123
0.046724 0.041156 1.723913
0.056934 0.041705 1.746930
0.067874 0.042554 1.782506
0.126252 0.042451 1.778182
0.135342 0.042243 1.769467
0.144531 0.042091 1.763111
0.154021 0.042041 1.761011
0.163003 0.041866 1.753681
0.172147 0.041750 1.748824
0.181206 0.041627 1.743658
0.191208 0.041722 1.747621
0.204095 0.042407 1.776326
-0.363177 0.053890 1.835450
-0.344383 0.052558 1.790109
-0.333544 0.052399 1.784672
-0.324492 0.052519 1.788756
-0.315797 0.052706 1.795124
-0.308460 0.053139 1.809869
-0.298955 0.053214 1.812449
-0.289452 0.053296 1.815220
-0.282047 0.053783 1.831815
-0.280112 0.055388 1.886477
-0.223629 0.051889 1.767319
-0.210507 0.051059 1.739035
-0.199396 0.050660 1.725455
-0.188603 0.050307 1.713419
-0.177390 0.049798 1.696102
-0.166624 0.049366 1.681375
-0.156210 0.048993 1.668680
-0.146315 0.048747 1.660300
-0.136961 0.048661 1.657354
-0.127227 0.048417 1.649050
-0.118238 0.048441 1.649881
-0.109023 0.048370 1.647443
-0.099804 0.048283 1.644478
-0.090787 0.048286 1.644591
-0.081646 0.048217 1.642246
-0.072576 0.048178 1.640924
-0.063632 0.048224 1.642466
-0.054602 0.048208 1.641925
-0.045596 0.048212 1.642070
-0.036722 0.048391 1.648165
-0.027714 0.048454 1.650321
-0.018715 0.048601 1.655321
-0.009686 0.048869 1.664452
-0.000556 0.049149 1.673974
0.008679 0.049432 1.683611
0.017994 0.049642 1.690771
0.027412 0.049898 1.699503
0.037050 0.050323 1.713984
0.046869 0.050772 1.729271
0.057185 0.051517 1.754633
0.068009 0.052440 1.786062
0.126727 0.052405 1.784871
0.135248 0.051916 1.768237
0.144377 0.051711 1.761235
0.153752 0.051614 1.757931
0.162439 0.051311 1.747621
0.171109 0.051037 1.738280
0.180363 0.050956 1.735545
0.190256 0.051056 1.738922
0.202958 0.051863 1.766432
-0.357813 0.063016 1.808340
-0.343521 0.062225 1.785632
-0.332866 0.062065 1.781042
-0.323264 0.062098 1.781983
-0.315462 0.062489 1.793220
-0.306983 0.062767 1.801201
-0.297909 0.062938 1.806107
-0.289263 0.063215 1.814039
-0.282972 0.064044 1.837826
-0.224223 0.061750 1.772013
-0.211107 0.060774 1.743991
-0.200092 0.060338 1.731479
-0.189319 0.059935 1.719922
-0.178361 0.059429 1.705387
-0.167192 0.058791 1.687103
-0.156417 0.058227 1.670894
-0.146733 0.058022 1.665037
-0.137018 0.057779 1.658037
-0.127587 0.057628 1.653724
-0.118222 0.057487 1.649664
-0.109044 0.057420 1.647762
-0.099864 0.057340 1.645466
-0.090832 0.057339 1.645416
-0.081798 0.057335 1.645312
-0.072652 0.057242 1.642649
-0.063635 0.057238 1.642534
-0.054637 0.057254 1.642987
-0.045740 0.057403 1.647260
-0.036723 0.057436 1.648218
-0.027751 0.057585 1.652494
-0.018779 0.057879 1.660918
-0.009706 0.058126 1.668005
-0.000557 0.058482 1.678215
0.008709 0.058874 1.689460
0.018036 0.059057 1.694723
0.027496 0.059406 1.704740
0.037063 0.059749 1.714593
0.046969 0.060388 1.732927
0.057185 0.061145 1.754643
0.067854 0.062098 1.781977
0.126867 0.062267 1.786845
0.135318 0.061651 1.769153
0.144394 0.061382 1.761444
0.153539 0.061175 1.755502
0.162030 0.060747 1.743211
0.170759 0.060451 1.734717
0.180149 0.060408 1.733481
0.189912 0.060487 1.735775
0.201902 0.061235 1.757235
-0.356542 0.072680 1.801920
-0.342592 0.071828 1.780802
-0.331501 0.071543 1.773741
-0.322305 0.071663 1.776698
-0.314177 0.072034 1.785916
-0.305977 0.072413 1.795298
-0.298236 0.072929 1.808092
-0.289456 0.073217 1.815245
-0.283307 0.074216 1.840002
-0.224359 0.071517 1.773093
-0.210894 0.070272 1.742226
-0.200052 0.069825 1.731136
-0.189765 0.069536 1.723975
-0.178947 0.069012 1.710984
-0.167355 0.068115 1.688750
-0.156623 0.067484 1.673092
-0.146849 0.067212 1.666358
-0.136993 0.066864 1.657739
-0.127635 0.066727 1.654341
-0.118131 0.066487 1.648389
-0.109046 0.066463 1.647784
-0.099985 0.066450 1.647473
-0.090805 0.066347 1.644920
-0.081786 0.066353 1.645074
-0.072657 0.066260 1.642751
-0.063742 0.066363 1.645305
-0.054780 0.066442 1.647274
-0.045743 0.066446 1.647359
-0.036773 0.066571 1.650461
-0.027828 0.066839 1.657111
-0.018806 0.067091 1.663354
-0.009740 0.067513 1.673821
-0.000558 0.067826 1.681579
0.008722 0.068245 1.691961
0.018092 0.068570 1.700039
0.027626 0.069085 1.712804
0.037152 0.069322 1.718670
0.046926 0.069833 1.731349
0.057061 0.070619 1.750830
0.067614 0.071622 1.775686
0.127023 0.072161 1.789050
0.135253 0.071324 1.768300
0.144005 0.070856 1.756703
0.152849 0.070489 1.747606
0.161915 0.070262 1.741979
0.170269 0.069768 1.729739
0.179650 0.069726 1.728683
0.189570 0.069886 1.732656
0.201481 0.070730 1.753573
-0.356699 0.082603 1.802712
-0.342410 0.081556 1.779857
-0.330296 0.080980 1.767292
-0.321540 0.081218 1.772480
-0.313572 0.081676 1.782472
-0.305644 0.082174 1.793345
-0.297451 0.082632 1.803333
-0.289908 0.083308 1.818080
-0.283053 0.084237 1.838352
-0.241122 0.083687 1.826367
-0.223817 0.081050 1.768807
-0.210925 0.079844 1.742488
-0.200101 0.079343 1.731559
-0.189863 0.079036 1.724863
-0.178974 0.078412 1.711245
-0.167518 0.077457 1.690390
-0.156635 0.076670 1.673218
-0.146418 0.076131 1.661462
-0.137151 0.076048 1.659652
-0.127626 0.075800 1.654226
-0.118259 0.075614 1.650173
-0.108984 0.075461 1.646847
-0.099938 0.075455 1.646696
-0.090991 0.075528 1.648301
-0.081799 0.075392 1.645321
-0.072702 0.075321 1.643777
-0.063796 0.075455 1.646711
-0.054824 0.075543 1.648624
-0.045763 0.075518 1.648074
-0.036789 0.075659 1.651165
-0.027816 0.075898 1.656374
-0.018796 0.076178 1.662484
-0.009742 0.076712 1.674129
-0.000559 0.077223 1.685290
0.008753 0.077798 1.697841
0.018158 0.078182 1.706215
0.027669 0.078605 1.715451
0.037199 0.078854 1.720881
0.046879 0.079255 1.729635
0.056983 0.080117 1.748448
0.067463 0.081183 1.771721
0.135351 0.081086 1.769585
0.143831 0.080398 1.754577
0.152737 0.080020 1.746332
0.161290 0.079512 1.735256
0.169956 0.079114 1.726560
0.179304 0.079059 1.725354
0.189159 0.079221 1.728896
0.201062 0.080185 1.749923
-0.355293 0.092131 1.795606
-0.341774 0.091153 1.776549
-0.329784 0.090537 1.764555
-0.320521 0.090656 1.766867
-0.312470 0.091135 1.776210
-0.305231 0.091890 1.790923
-0.297586 0.092569 1.804148
-0.290393 0.093440 1.821121
-0.282796 0.094238 1.836680
-0.238691 0.092764 1.807953
-0.223812 0.090754 1.768769
-0.211318 0.089571 1.745728
-0.200768 0.089140 1.737327
-0.190506 0.088800 1.730703
-0.179381 0.088002 1.715137
-0.167458 0.086701 1.689790
-0.156371 0.085706 1.670397
-0.146567 0.085335 1.663155
-0.137224 0.085200 1.660536
-0.127625 0.084876 1.654209
-0.118350 0.084734 1.651445
-0.108975 0.084491 1.646706
-0.099995 0.084538 1.647628
-0.090935 0.084520 1.647280
-0.081902 0.084526 1.647393
-0.072750 0.084396 1.644862
-0.063792 0.084485 1.646592
-0.054776 0.084515 1.647182
-0.045782 0.084596 1.648760
-0.036860 0.084884 1.654366
-0.027852 0.085095 1.658491
-0.018830 0.085451 1.665431
-0.009766 0.086110 1.678271
-0.000561 0.086755 1.690834
0.008759 0.087181 1.699148
0.018173 0.087615 1.707590
0.027599 0.087796 1.711134
0.037158 0.088198 1.718957
0.046964 0.088905 1.732749
0.057022 0.089773 1.749655
0.067502 0.090957 1.772729
0.135431 0.090849 1.770626
0.143888 0.090061 1.755271
0.152104 0.089231 1.739092
0.160327 0.088502 1.724890
0.169475 0.088337 1.721681
0.178758 0.088256 1.720100
0.188603 0.088447 1.723810
0.200227 0.089414 1.742656
-0.353098 0.101353 1.784515
-0.339582 0.100254 1.765154
-0.329099 0.100011 1.760886
-0.319890 0.100153 1.763389
-0.311814 0.100670 1.772482
-0.305092 0.101671 1.790107
-0.298128 0.102655 1.807434
-0.290299 0.103399 1.820534
-0.285525 0.105323 1.854405
-0.237129 0.102013 1.796122
-0.223211 0.100189 1.764015
-0.211574 0.099271 1.747848
-0.201137 0.098855 1.740522
-0.191089 0.098598 1.736004
-0.179295 0.097366 1.714317
-0.167584 0.096046 1.691063
-0.156731 0.095090 1.674244
-0.146637 0.094506 1.663951
-0.137139 0.094253 1.659501
-0.127516 0.093872 1.652795
-0.118262 0.093725 1.650213
-0.109049 0.093590 1.647830
-0.100135 0.093710 1.649940
-0.091059 0.093686 1.649524
-0.081975 0.093649 1.648861
-0.072690 0.093344 1.643500
-0.063693 0.093375 1.644049
-0.054830 0.093645 1.648788
-0.045863 0.093808 1.651670
-0.036855 0.093948 1.654134
-0.027916 0.094414 1.662340
-0.018913 0.095006 1.672758
-0.009778 0.095439 1.680388
-0.000563 0.096290 1.695362
0.008769 0.096609 1.700992
0.018164 0.096938 1.706780
0.027616 0.097244 1.712166
0.037131 0.097559 1.717713
0.046823 0.098118 1.727553
0.056694 0.098801 1.739586
0.067298 0.100380 1.767371
0.135886 0.100902 1.776577
0.144006 0.099774 1.756715
0.152092 0.098766 1.738956
0.160180 0.097877 1.723312
0.169283 0.097674 1.719728
0.178405 0.097502 1.716705
0.188290 0.097743 1.720952
0.200492 0.099107 1.744969
-0.351865 0.110757 1.778280
-0.339521 0.109919 1.764836
-0.328854 0.109592 1.759575
-0.319194 0.109590 1.759551
-0.311484 0.110279 1.770608
-0.304563 0.111300 1.786999
-0.297166 0.112210 1.801605
-0.291110 0.113705 1.825617
-0.235885 0.111281 1.786698
-0.222731 0.109632 1.760221
-0.211390 0.108767 1.746325
-0.201100 0.108385 1.740199
-0.190977 0.108060 1.734983
-0.179491 0.106889 1.716183
-0.167590 0.105328 1.691123
-0.157082 0.104511 1.678000
-0.146585 0.103599 1.663363
-0.136874 0.103159 1.656292
-0.127474 0.102908 1.652259
-0.118197 0.102724 1.649308
-0.109204 0.102778 1.650170
-0.100462 0.103099 1.655325
-0.091552 0.103294 1.658464
-0.082239 0.103028 1.654181
-0.072812 0.102533 1.646245
-0.063864 0.102671 1.648450
-0.054808 0.102651 1.648129
-0.045810 0.102753 1.649772
-0.036945 0.103278 1.658204
-0.027963 0.103707 1.665099
-0.018917 0.104211 1.673185
-0.009806 0.104955 1.685126
-0.000564 0.105842 1.699370
0.008773 0.105994 1.701810
0.018183 0.106415 1.708570
0.027621 0.106656 1.712438
0.037138 0.107004 1.718033
0.046834 0.107622 1.727950
0.056825 0.108597 1.743604
0.067091 0.109740 1.761953
0.078239 0.111855 1.795920
0.135940 0.110694 1.777279
0.143501 0.109030 1.750558
0.152007 0.108247 1.737985
0.160180 0.107333 1.723311
0.168959 0.106905 1.716430
0.178068 0.106720 1.713461
0.188129 0.107095 1.719480
0.200496 0.108684 1.744997
-0.350918 0.120190 1.773494
-0.338969 0.119409 1.761968
-0.328335 0.119059 1.756798
-0.318518 0.118992 1.755823
-0.311325 0.119933 1.769699
-0.303472 0.120672 1.780602
-0.296423 0.121790 1.797098
-0.290803 0.123592 1.823696
-0.235810 0.121046 1.786131
-0.222499 0.119166 1.758389
-0.210784 0.118010 1.741319
-0.200660 0.117676 1.736391
-0.190783 0.117461 1.733220
-0.180164 0.116743 1.722626
-0.168384 0.115151 1.699136
-0.157250 0.113840 1.679790
-0.146737 0.112843 1.665081
-0.137154 0.112477 1.659685
-0.127688 0.112161 1.655023
-0.118476 0.112038 1.653205
-0.109276 0.111906 1.651260
-0.100503 0.112227 1.655993
-0.091475 0.112299 1.657060
-0.082202 0.112053 1.653429
-0.072795 0.111541 1.645869
-0.063784 0.111575 1.646378
-0.054806 0.111691 1.648083
-0.045835 0.111867 1.650674
-0.036989 0.112508 1.660144
-0.027979 0.112910 1.666075
-0.018962 0.113663 1.677176
-0.009833 0.114520 1.689833
-0.000564 0.115187 1.699670
0.008780 0.115419 1.703092
0.018194 0.115863 1.709645
0.027615 0.116029 1.712093
0.037164 0.116512 1.719229
0.046871 0.117197 1.729325
0.056758 0.118026 1.741555
0.067207 0.119614 1.765001
0.078374 0.121920 1.799013
0.135373 0.119944 1.769867
0.143119 0.118320 1.745896
0.151590 0.117460 1.733211
0.159719 0.116453 1.718349
0.168393 0.115933 1.710682
0.177722 0.115896 1.710128
0.187691 0.116258 1.715479
0.199616 0.117740 1.737340
-0.350397 0.129729 1.770863
-0.338765 0.128999 1.760906
-0.327882 0.128521 1.754375
-0.318229 0.128510 1.754228
-0.310651 0.129363 1.765870
-0.303814 0.130589 1.782605
-0.296150 0.131529 1.795443
-0.290111 0.133281 1.819354
-0.236421 0.131186 1.790763
-0.222407 0.128762 1.757663
-0.210872 0.127618 1.742046
-0.200568 0.127145 1.735594
-0.190033 0.126472 1.726404
-0.180035 0.126105 1.721392
-0.168742 0.124738 1.702744
-0.157578 0.123314 1.683300
-0.147310 0.122456 1.671585
-0.137577 0.121959 1.664797
-0.128107 0.121641 1.660459
-0.118769 0.121409 1.657293
-0.109285 0.120976 1.651390
-0.100262 0.121023 1.652026
-0.091301 0.121161 1.653912
-0.082005 0.120836 1.649467
-0.072947 0.120825 1.649318
-0.063771 0.120585 1.646049
-0.054884 0.120906 1.650426
-0.046019 0.121409 1.657296
-0.036999 0.121653 1.660619
-0.028029 0.122271 1.669067
-0.019009 0.123168 1.681301
-0.009828 0.123726 1.688921
-0.000564 0.124508 1.699597
0.008771 0.124643 1.701438
0.018131 0.124808 1.703687
0.027585 0.125287 1.710237
0.037119 0.125796 1.717176
0.046800 0.126495 1.726719
0.056733 0.127525 1.740783
0.067217 0.129318 1.765257
0.078698 0.132336 1.806455
0.135640 0.129912 1.773366
0.142811 0.127624 1.742140
0.151252 0.126688 1.729354
0.159651 0.125829 1.717625
0.168124 0.125120 1.707954
0.177354 0.125020 1.706584
0.187149 0.125309 1.710526
0.199513 0.127207 1.736443
-0.350950 0.139666 1.773659
-0.337880 0.138299 1.756307
-0.326895 0.137732 1.749096
-0.318167 0.138109 1.753890
-0.310081 0.138797 1.762631
-0.302542 0.139783 1.775145
-0.296416 0.141508 1.797056
-0.293494 0.144935 1.840572
-0.237009 0.141363 1.795214
-0.222453 0.138435 1.758031
-0.211111 0.137332 1.744017
-0.200421 0.136569 1.734329
-0.190165 0.136040 1.727610
-0.179880 0.135433 1.719902
-0.168998 0.134285 1.705326
-0.158306 0.133162 1.691068
-0.147802 0.132068 1.677173
-0.137937 0.131437 1.669156
-0.128298 0.130947 1.662940
-0.118778 0.130512 1.657417
-0.109539 0.130341 1.655239
-0.100306 0.130145 1.652749
-0.091202 0.130095 1.652115
-0.082121 0.130070 1.651798
-0.073103 0.130151 1.652834
-0.063959 0.129999 1.650901
-0.055084 0.130435 1.656432
-0.046138 0.130840 1.661576
-0.037086 0.131071 1.664505
-0.028136 0.131931 1.675430
-0.019001 0.132339 1.680615
-0.009803 0.132657 1.684657
-0.000562 0.133193 1.691454
0.008761 0.133819 1.699410
0.018106 0.133970 1.701323
0.027565 0.134575 1.709005
0.037129 0.135255 1.717647
0.046865 0.136157 1.729103
0.056771 0.137169 1.741947
0.067125 0.138815 1.762851
0.078712 0.142273 1.806765
0.142981 0.137347 1.744213
0.151379 0.136291 1.730804
0.159570 0.135185 1.716755
0.167850 0.134273 1.705171
0.177087 0.134182 1.704023
0.186799 0.134443 1.707329
0.199368 0.136636 1.735187
-0.349530 0.148793 1.766482
-0.336887 0.147502 1.751148
-0.326330 0.147074 1.746071
-0.317237 0.147301 1.748762
-0.309958 0.148410 1.761932
-0.301853 0.149183 1.771101
-0.295816 0.151063 1.793420
-0.236842 0.151107 1.793952
-0.222823 0.148328 1.760955
-0.210298 0.146336 1.737304
-0.199579 0.145471 1.727036
-0.189573 0.145066 1.722229
-0.179482 0.144550 1.716104
-0.169240 0.143848 1.707774
-0.158337 0.142470 1.691404
-0.148318 0.141764 1.683031
-0.138224 0.140888 1.672629
-0.128567 0.140366 1.666425
-0.119016 0.139887 1.660744
-0.109810 0.139767 1.659323
-0.100698 0.139758 1.659214
-0.091495 0.139608 1.657433
-0.082271 0.139388 1.654824
-0.073107 0.139228 1.652916
-0.064129 0.139429 1.655304
-0.055162 0.139720 1.658764
-0.046138 0.139956 1.661565
-0.037165 0.140505 1.668078
-0.028125 0.141070 1.674786
-0.019028 0.141762 1.683001
-0.009800 0.141851 1.684065
-0.000561 0.142371 1.690237
0.008740 0.142806 1.695396
0.018097 0.143236 1.700505
0.027554 0.143896 1.708342
0.037149 0.144755 1.718537
0.046781 0.145383 1.725995
0.056670 0.146465 1.738833
0.067039 0.148297 1.760583
0.078964 0.152674 1.812551
0.143278 0.147223 1.747836
0.151102 0.145521 1.727634
0.159064 0.144146 1.711302
0.167379 0.143226 1.700385
0.176580 0.143121 1.699137
0.186674 0.143715 1.706188
0.198627 0.145614 1.728732
-0.348309 0.157933 1.760310
-0.336390 0.156879 1.748562
-0.326428 0.156702 1.746598
-0.318033 0.157290 1.753152
-0.310527 0.158368 1.765167
-0.302328 0.159151 1.773890
-0.296376 0.161208 1.796816
-0.236043 0.160408 1.787896
-0.222693 0.157898 1.759927
-0.210481 0.156004 1.738817
-0.199399 0.154808 1.725479
-0.189394 0.154370 1.720604
-0.179279 0.153792 1.714156
-0.169141 0.153129 1.706772
-0.158636 0.152037 1.694601
-0.148541 0.151226 1.685556
-0.138331 0.150183 1.673930
-0.128933 0.149934 1.671162
-0.119352 0.149420 1.665431
-0.109908 0.149005 1.660806
-0.100850 0.149088 1.661723
-0.091638 0.148935 1.660019
-0.082327 0.148570 1.655954
-0.073227 0.148541 1.655631
-0.064254 0.148799 1.658512
-0.055186 0.148887 1.659485
-0.046187 0.149235 1.663363
-0.037177 0.149704 1.668594
-0.028167 0.150482 1.677261
-0.019037 0.151065 1.683763
-0.009802 0.151120 1.684374
-0.000560 0.151430 1.687829
0.008736 0.152045 1.694684
0.018071 0.152350 1.698084
0.027511 0.153029 1.705655
0.037066 0.153840 1.714689
0.046727 0.154677 1.724028
0.056568 0.155726 1.735715
0.066776 0.157338 1.753686
0.077982 0.160598 1.790015
0.143859 0.157449 1.754921
0.151326 0.155231 1.730195
0.159055 0.153528 1.711213
0.167280 0.152466 1.699380
0.176360 0.152255 1.697025
0.186444 0.152888 1.704081
0.199014 0.155402 1.732106
-0.348132 0.167506 1.759415
-0.336185 0.166372 1.747499
-0.326130 0.166134 1.745000
-0.317993 0.166889 1.752928
-0.309792 0.167656 1.760986
-0.301839 0.168611 1.771021
-0.296111 0.170914 1.795210
-0.235567 0.169875 1.784290
-0.222175 0.167165 1.755829
-0.210266 0.165376 1.737039
-0.199436 0.164306 1.725802
-0.189422 0.163836 1.720859
-0.179024 0.162966 1.711720
-0.169165 0.162517 1.707010
-0.158772 0.161474 1.696048
-0.148912 0.160876 1.689772
-0.138631 0.159713 1.677558
-0.129113 0.159326 1.673494
-0.119532 0.158798 1.667942
-0.110150 0.158467 1.664464
-0.101001 0.158443 1.664213
-0.091774 0.158278 1.662481
-0.082605 0.158187 1.661532
-0.073575 0.158376 1.663513
-0.064415 0.158296 1.662676
-0.055356 0.158480 1.664603
-0.046270 0.158643 1.666318
-0.037176 0.158855 1.668548
-0.028138 0.159525 1.675577
-0.018992 0.159924 1.679776
-0.009796 0.160274 1.683445
-0.000560 0.160633 1.687223
0.008739 0.161388 1.695147
0.018094 0.161873 1.700244
0.027497 0.162305 1.704785
0.037047 0.163166 1.713820
0.046626 0.163782 1.720294
0.056543 0.165178 1.734956
0.066844 0.167130 1.755461
0.078122 0.170726 1.793233
0.145108 0.168530 1.770161
0.151550 0.164968 1.732757
0.159195 0.163060 1.712710
0.167473 0.161977 1.701340
0.175909 0.161153 1.692680
0.186164 0.161995 1.701526
0.198160 0.164198 1.724666
-0.346082 0.176117 1.749056
-0.335154 0.175421 1.742138
-0.325418 0.175326 1.741192
-0.317264 0.176103 1.748913
-0.309685 0.177258 1.760379
-0.302670 0.178820 1.775894
-0.234166 0.178597 1.773679
-0.221306 0.176108 1.748964
-0.209723 0.174456 1.732551
-0.199228 0.173595 1.724004
-0.189267 0.173137 1.719453
-0.178867 0.172207 1.710217
-0.168606 0.171316 1.701375
-0.158794 0.170804 1.696285
-0.149299 0.170590 1.694157
-0.139104 0.169495 1.683286
-0.129254 0.168693 1.675320
-0.119833 0.168372 1.672137
-0.110440 0.168041 1.668850
-0.101164 0.167843 1.666884
-0.091940 0.167702 1.665485
-0.082939 0.167981 1.668254
-0.073681 0.167744 1.665896
-0.064435 0.167471 1.663187
-0.055437 0.167860 1.667052
-0.046304 0.167913 1.667575
-0.037210 0.168164 1.670066
-0.028136 0.168706 1.675456
-0.018978 0.169014 1.678510
-0.009812 0.169784 1.686154
-0.000560 0.169995 1.688253
0.008744 0.170800 1.696250
0.018082 0.171089 1.699115
0.027463 0.171447 1.702672
0.036974 0.172233 1.710474
0.046485 0.172697 1.715089
0.056332 0.174046 1.728481
0.066851 0.176780 1.755636
0.077814 0.179855 1.786173
0.151787 0.174749 1.735466
0.158837 0.172070 1.708863
0.167236 0.171070 1.698930
0.175670 0.170210 1.690386
0.185217 0.170459 1.692862
0.197514 0.173096 1.719047
-0.345588 0.185449 1.746557
-0.334470 0.184603 1.738585
-0.324603 0.184417 1.736833
-0.316990 0.185539 1.747401
-0.309932 0.187066 1.761782
-0.303561 0.189119 1.781122
-0.232734 0.187178 1.762836
-0.219970 0.184584 1.738407
-0.209648 0.183897 1.731935
-0.199160 0.182992 1.723410
-0.189070 0.182381 1.717657
-0.179037 0.181763 1.711842
-0.168816 0.180877 1.703493
-0.159533 0.180949 1.704175
-0.149607 0.180256 1.697649
-0.139275 0.178950 1.685347
-0.129551 0.178295 1.679176
-0.119928 0.177688 1.673461
-0.110604 0.177462 1.671333
-0.101332 0.177285 1.669668
-0.092096 0.177141 1.668313
-0.082917 0.177089 1.667819
-0.073721 0.176983 1.666816
-0.064504 0.176787 1.664974
-0.055449 0.177046 1.667413
-0.046344 0.177214 1.668995
-0.037338 0.177940 1.675838
-0.028181 0.178182 1.678111
-0.019005 0.178479 1.680905
-0.009813 0.179059 1.686372
-0.000560 0.179247 1.688143
0.008727 0.179758 1.692953
0.018019 0.179781 1.693175
0.027405 0.180405 1.699048
0.036842 0.180969 1.704361
0.046306 0.181406 1.708475
0.056101 0.182776 1.721380
0.066326 0.184949 1.741847
0.077300 0.188403 1.774370
0.152213 0.184789 1.740335
0.158858 0.181471 1.709092
0.166544 0.179646 1.691904
0.175014 0.178815 1.684073
0.185131 0.179665 1.692082
0.198352 0.183303 1.726343
-0.344191 0.194245 1.739500
-0.332724 0.193129 1.729504
-0.323931 0.193545 1.733235
-0.316200 0.194641 1.743043
-0.308895 0.196075 1.755888
-0.303110 0.198597 1.778478
-0.231006 0.195389 1.749743
-0.219773 0.193949 1.736851
-0.209143 0.192934 1.727760
-0.198369 0.191684 1.716565
-0.188646 0.191376 1.713811
-0.179052 0.191173 1.711989
-0.169027 0.190462 1.705622
-0.159185 0.189885 1.700457
-0.149667 0.189648 1.698338
-0.139641 0.188692 1.689775
-0.129735 0.187775 1.681563
-0.120063 0.187082 1.675357
-0.110704 0.186802 1.672845
-0.101372 0.186520 1.670321
-0.092016 0.186134 1.666867
-0.082842 0.186071 1.666303
-0.073843 0.186434 1.669555
-0.064752 0.186637 1.671374
-0.055543 0.186509 1.670225
-0.046452 0.186808 1.672898
-0.037305 0.186970 1.674351
-0.028143 0.187136 1.675837
-0.019020 0.187849 1.682227
-0.009818 0.188412 1.687265
-0.000560 0.188304 1.686293
0.008704 0.188543 1.688434
0.017967 0.188522 1.688246
0.027374 0.189514 1.697130
0.036859 0.190405 1.705114
0.046280 0.190676 1.707542
0.055860 0.191396 1.713983
0.065949 0.193401 1.731945
0.076949 0.197239 1.766314
0.089949 0.204769 1.833747
0.152621 0.194860 1.745007
0.159013 0.191035 1.710757
0.165968 0.188276 1.686048
0.174130 0.187106 1.675569
0.184166 0.187965 1.683261
0.198445 0.192866 1.727149
-0.342989 0.203078 1.733425
-0.331631 0.201953 1.723825
-0.322479 0.202145 1.725465
-0.315667 0.203861 1.740108
-0.309316 0.205990 1.758282
-0.305491 0.209992 1.792444
-0.243107 0.207120 1.767923
-0.230605 0.204634 1.746705
-0.219513 0.203238 1.734789
-0.208496 0.201789 1.722422
-0.198135 0.200866 1.714540
-0.188118 0.200218 1.709013
-0.178787 0.200270 1.709456
-0.168838 0.199597 1.703712
-0.159189 0.199221 1.700502
-0.149394 0.198604 1.695238
-0.139626 0.197944 1.689599
-0.130016 0.197429 1.685205
-0.120178 0.196462 1.676949
-0.110703 0.195979 1.672827
-0.101456 0.195848 1.671711
-0.092182 0.195632 1.669870
-0.083046 0.195695 1.670404
-0.073918 0.195795 1.671262
-0.064693 0.195629 1.669841
-0.055556 0.195720 1.670616
-0.046495 0.196168 1.674439
-0.037331 0.196295 1.675529
-0.028177 0.196568 1.677855
-0.019009 0.196968 1.681275
-0.009799 0.197281 1.683945
-0.000560 0.197484 1.685674
0.008695 0.197595 1.686622
0.017964 0.197750 1.687949
0.027342 0.198595 1.695161
0.036737 0.199100 1.699471
0.046264 0.199974 1.706928
0.055883 0.200883 1.714692
0.065852 0.202607 1.729408
0.076764 0.206432 1.762057
0.158825 0.200185 1.708730
0.165806 0.197334 1.684399
0.173699 0.195814 1.671422
0.183242 0.196212 1.674817
0.196595 0.200457 1.711050
-0.341002 0.211358 1.723380
-0.329949 0.210340 1.715081
-0.322582 0.211681 1.726019
-0.316342 0.213865 1.743827
-0.308778 0.215263 1.755223
-0.241705 0.215570 1.757729
-0.229864 0.213530 1.741094
-0.219150 0.212406 1.731927
-0.208084 0.210822 1.719011
-0.197734 0.209848 1.711070
-0.187607 0.209026 1.704372
-0.177878 0.208585 1.700769
-0.168430 0.208441 1.699595
-0.159020 0.208330 1.698695
-0.149374 0.207878 1.695006
-0.139605 0.207183 1.689337
-0.130104 0.206816 1.686347
-0.120345 0.205950 1.679286
-0.110966 0.205645 1.676797
-0.101572 0.205253 1.673608
-0.092324 0.205110 1.672437
-0.083094 0.204979 1.671369
-0.073912 0.204949 1.671129
-0.064632 0.204599 1.668274
-0.055600 0.205050 1.671953
-0.046479 0.205284 1.673857
-0.037380 0.205757 1.677715
-0.028196 0.205919 1.679031
-0.019029 0.206411 1.683045
-0.009792 0.206383 1.682816
-0.000559 0.206473 1.683548
0.008672 0.206311 1.682232
0.017946 0.206807 1.686271
0.027295 0.207541 1.692261
0.036716 0.208307 1.698507
0.046221 0.209144 1.705328
0.055802 0.209988 1.712214
0.065419 0.210701 1.718022
0.075988 0.213916 1.744241
0.159084 0.209903 1.711518
0.165921 0.206721 1.685576
0.173223 0.204424 1.666842
0.182690 0.204782 1.669766
0.194739 0.207864 1.694895
-0.339163 0.219623 1.714088
-0.329300 0.219319 1.711711
-0.321963 0.220728 1.722708
-0.316116 0.223275 1.742584
-0.309501 0.225421 1.759332
-0.239508 0.223168 1.741752
-0.229069 0.222313 1.735076
-0.218667 0.221420 1.728108
-0.207821 0.219976 1.716843
-0.197371 0.218835 1.707935
-0.187249 0.217961 1.701113
-0.177672 0.217663 1.698790
-0.168166 0.217425 1.696929
-0.158710 0.217227 1.695382
-0.149164 0.216874 1.692628
-0.139229 0.215870 1.684791
-0.129940 0.215796 1.684214
-0.120372 0.215213 1.679663
-0.110760 0.214447 1.673685
-0.101488 0.214261 1.672237
-0.092439 0.214553 1.674518
-0.083106 0.214182 1.671622
-0.074083 0.214613 1.674981
-0.064700 0.213979 1.670037
-0.055549 0.214029 1.670428
-0.046530 0.214703 1.675689
-0.037337 0.214717 1.675792
-0.028179 0.215000 1.678007
-0.019016 0.215498 1.681887
-0.009796 0.215693 1.683413
-0.000559 0.215702 1.683483
0.008673 0.215569 1.682447
0.017923 0.215787 1.684150
0.027223 0.216251 1.687767
0.036628 0.217107 1.694447
0.046107 0.217964 1.701140
0.055616 0.218652 1.706503
0.065298 0.219721 1.714850
0.075472 0.221971 1.732409
0.087423 0.228357 1.782250
0.159287 0.219574 1.713703
0.164799 0.214509 1.674169
0.172280 0.212407 1.657764
0.182627 0.213871 1.669194
0.194524 0.216924 1.693022
-0.338792 0.228778 1.712211
-0.328448 0.228119 1.707279
-0.321191 0.229628 1.718576
-0.315555 0.232423 1.739490
-0.309990 0.235445 1.762111
-0.239494 0.232712 1.741654
-0.228287 0.231041 1.729150
-0.217463 0.229631 1.718592
-0.206761 0.228226 1.708083
-0.196884 0.227643 1.703719
-0.187269 0.227320 1.701299
-0.177567 0.226851 1.697790
-0.167901 0.226380 1.694260
-0.158406 0.226096 1.692136
-0.149041 0.225974 1.691228
-0.139312 0.225249 1.685801
-0.129626 0.224493 1.680142
-0.120180 0.224071 1.676985
-0.110687 0.223483 1.672579
-0.101329 0.223086 1.669611
-0.092238 0.223256 1.670885
-0.082980 0.223014 1.669072
-0.073915 0.223299 1.671202
-0.064694 0.223122 1.669878
-0.055620 0.223477 1.672536
-0.046497 0.223741 1.674515
-0.037308 0.223739 1.674496
-0.028186 0.224258 1.678385
-0.018977 0.224269 1.678464
-0.009781 0.224595 1.680907
-0.000558 0.224564 1.680675
0.008657 0.224368 1.679209
0.017892 0.224633 1.681189
0.027193 0.225268 1.685938
0.036545 0.225890 1.690596
0.045967 0.226610 1.695983
0.055531 0.227668 1.703900
0.065173 0.228693 1.711577
0.075080 0.230274 1.723406
0.086363 0.235249 1.760643
0.158472 0.227806 1.704936
0.164320 0.223046 1.669309
0.172649 0.221978 1.661318
0.182198 0.222507 1.665276
0.193949 0.225546 1.688023
-0.338462 0.237942 1.710546
-0.327095 0.236509 1.700247
-0.319434 0.237751 1.709175
-0.314579 0.241220 1.734112
-0.309815 0.244976 1.761119
-0.250894 0.244061 1.754540
-0.239245 0.242017 1.739842
-0.227581 0.239786 1.723806
-0.216835 0.238370 1.713626
-0.206201 0.236955 1.703455
-0.196357 0.236358 1.699163
-0.186621 0.235836 1.695411
-0.177178 0.235649 1.694067
-0.167854 0.235610 1.693782
-0.158157 0.235011 1.689482
-0.148801 0.234876 1.688511
-0.139318 0.234510 1.685875
-0.129325 0.233170 1.676241
-0.119825 0.232583 1.672024
-0.110719 0.232727 1.673059
-0.101203 0.231959 1.667537
-0.092006 0.231839 1.666679
-0.082733 0.231483 1.664116
-0.073625 0.231555 1.664635
-0.064571 0.231843 1.666704
-0.055582 0.232496 1.671399
-0.046440 0.232644 1.672460
-0.037296 0.232847 1.673919
-0.028136 0.233053 1.675403
-0.018982 0.233541 1.678911
-0.009770 0.233556 1.679020
-0.000557 0.233215 1.676564
0.008642 0.233181 1.676324
0.017874 0.233623 1.679502
0.027140 0.234063 1.682666
0.036487 0.234792 1.687903
0.045895 0.235546 1.693326
0.055413 0.236511 1.700265
0.064970 0.237343 1.706242
0.074699 0.238513 1.714656
0.085583 0.242698 1.744738
0.157714 0.236027 1.696781
0.163628 0.231228 1.662282
0.171935 0.230137 1.654440
0.180985 0.230102 1.654191
0.191420 0.231746 1.666010
-0.351640 0.250024 1.729193
-0.337204 0.246408 1.704188
-0.326092 0.245084 1.695033
-0.318007 0.246025 1.701538
-0.312864 0.249367 1.724653
-0.249567 0.252347 1.745260
-0.237939 0.250190 1.730345
-0.226625 0.248198 1.716565
-0.216214 0.247064 1.708721
-0.205628 0.245618 1.698722
-0.196010 0.245247 1.696159
-0.186747 0.245304 1.696553
-0.177121 0.244867 1.693527
-0.167785 0.244803 1.693085
-0.158281 0.244472 1.690799
-0.148871 0.244256 1.689300
-0.139149 0.243464 1.683825
-0.129594 0.242872 1.679733
-0.120002 0.242115 1.674493
-0.110646 0.241748 1.671961
-0.101203 0.241109 1.667537
-0.091946 0.240828 1.665594
-0.082568 0.240133 1.660787
-0.073478 0.240210 1.661323
-0.064707 0.241497 1.670220
-0.055567 0.241604 1.670961
-0.046433 0.241784 1.672205
-0.037367 0.242496 1.677133
-0.028199 0.242792 1.679175
-0.018973 0.242636 1.678100
-0.009748 0.242211 1.675163
-0.000557 0.242457 1.676865
0.008639 0.242299 1.675772
0.017844 0.242434 1.676705
0.027062 0.242598 1.677837
0.036377 0.243322 1.682843
0.045781 0.244230 1.689121
0.055293 0.245311 1.696600
0.064835 0.246194 1.702710
0.074616 0.247645 1.712745
0.084894 0.250239 1.730686
0.097028 0.257233 1.779055
0.156085 0.242803 1.679256
0.162750 0.239059 1.653357
0.171114 0.238073 1.646543
0.180391 0.238393 1.648757
0.191184 0.240590 1.663952
0.204192 0.245248 1.696162
-0.351700 0.259556 1.729488
-0.335564 0.254515 1.695897
-0.325490 0.253915 1.691902
-0.317032 0.254579 1.696324
-0.310703 0.257043 1.712741
-0.248526 0.260831 1.737982
-0.236980 0.258638 1.723367
-0.225763 0.256637 1.710035
-0.215595 0.255706 1.703830
-0.205477 0.254752 1.697476
-0.195581 0.253996 1.692439
-0.186210 0.253882 1.691678
-0.176921 0.253872 1.691610
-0.167891 0.254254 1.694161
-0.158384 0.253915 1.691901
-0.148734 0.253291 1.687745
-0.139129 0.252666 1.683577
-0.129682 0.252261 1.680880
-0.119922 0.251135 1.673377
-0.110340 0.250230 1.667343
-0.100941 0.249610 1.663215
-0.091827 0.249643 1.663437
-0.082643 0.249472 1.662295
-0.073557 0.249594 1.663108
-0.064563 0.250102 1.666492
-0.055567 0.250773 1.670961
-0.046489 0.251264 1.674237
-0.037335 0.251480 1.675673
-0.028172 0.251761 1.677550
-0.018962 0.251693 1.677097
-0.009758 0.251667 1.676923
-0.000557 0.251739 1.677401
0.008638 0.251480 1.675671
0.017851 0.251731 1.677346
0.027068 0.251860 1.678208
0.036303 0.252039 1.679398
0.045648 0.252762 1.684220
0.055060 0.253548 1.689454
0.064685 0.254945 1.698762
0.074537 0.256774 1.710948
0.084764 0.259338 1.728035
0.095536 0.262888 1.751691
0.154938 0.250166 1.666921
0.161939 0.246895 1.645123
0.170712 0.246528 1.642677
0.180270 0.247274 1.647649
0.191136 0.249658 1.663533
0.204442 0.254866 1.698239
-0.350942 0.268466 1.725761
-0.335636 0.263877 1.696262
-0.324807 0.262647 1.688355
-0.316745 0.263648 1.694786
-0.308950 0.264938 1.703082
-0.304383 0.269163 1.730237
-0.247956 0.269748 1.733998
-0.236177 0.267186 1.717531
-0.225273 0.265442 1.706318
-0.215506 0.264945 1.703124
-0.205102 0.263584 1.694379
-0.195159 0.262715 1.688788
-0.185889 0.262710 1.688761
-0.176889 0.263107 1.691313
-0.167724 0.263288 1.692477
-0.158179 0.262859 1.689716
-0.148567 0.262258 1.685852
-0.139143 0.261932 1.683757
-0.129684 0.261488 1.680905
-0.119671 0.259774 1.669886
-0.110246 0.259158 1.665924
-0.100850 0.258502 1.661711
-0.091579 0.258073 1.658950
-0.082637 0.258574 1.662174
-0.073492 0.258491 1.661640
-0.064372 0.258480 1.661566
-0.055340 0.258878 1.664124
-0.046396 0.259930 1.670886
-0.037356 0.260821 1.676612
-0.028196 0.261197 1.679030
-0.018975 0.261075 1.678246
-0.009768 0.261141 1.678671
-0.000557 0.260852 1.676815
0.008626 0.260297 1.673250
0.017810 0.260336 1.673499
0.026993 0.260337 1.673504
0.036282 0.261108 1.678458
0.045520 0.261265 1.679468
0.054858 0.261853 1.683249
0.064385 0.263042 1.690890
0.074428 0.265771 1.708436
0.084438 0.267787 1.721393
0.095087 0.271220 1.743465
0.154010 0.257758 1.656927
0.161562 0.255325 1.641285
0.170262 0.254867 1.638345
0.179818 0.255673 1.643525
0.190956 0.258542 1.661968
-0.349413 0.276724 1.718238
-0.334895 0.272582 1.692518
-0.323827 0.271091 1.683259
-0.315126 0.271552 1.686123
-0.307730 0.273200 1.696356
-0.300833 0.275407 1.710059
-0.246646 0.277786 1.724832
-0.235363 0.275656 1.711607
-0.224797 0.274224 1.702713
-0.214785 0.273373 1.697427
-0.204770 0.272440 1.691639
-0.194965 0.271711 1.687113
-0.185538 0.271463 1.685572
-0.176441 0.271698 1.687028
-0.167224 0.271762 1.687425
-0.158026 0.271867 1.688078
-0.148687 0.271728 1.687217
-0.139367 0.271607 1.686466
-0.129957 0.271280 1.684437
-0.119746 0.269105 1.670932
-0.110202 0.268191 1.665255
-0.100713 0.267258 1.659458
-0.091352 0.266514 1.654843
-0.082406 0.266949 1.657542
-0.073453 0.267465 1.660748
-0.064464 0.267979 1.663938
-0.055520 0.268879 1.669527
-0.046544 0.269952 1.676190
-0.037403 0.270362 1.678734
-0.028177 0.270225 1.677884
-0.018973 0.270264 1.678123
-0.009762 0.270171 1.677547
-0.000557 0.270005 1.676519
0.008619 0.269275 1.671984
0.017778 0.269034 1.670486
0.026943 0.269021 1.670411
0.036189 0.269621 1.674135
0.045348 0.269461 1.673141
0.054720 0.270408 1.679020
0.064301 0.271964 1.688682
0.074079 0.273857 1.700437
0.084255 0.276630 1.717657
0.095420 0.281769 1.749561
0.145587 0.268082 1.664577
0.152689 0.264562 1.642718
0.160728 0.262968 1.632821
0.169869 0.263249 1.634566
0.179450 0.264149 1.640159
0.190535 0.267073 1.658309
-0.348488 0.285395 1.713690
-0.334031 0.281142 1.688153
-0.322337 0.279037 1.675512
-0.313452 0.279312 1.677166
-0.305489 0.280451 1.684001
-0.298135 0.282237 1.694725
-0.294939 0.288200 1.730533
-0.259100 0.290604 1.744968
-0.245605 0.286039 1.717556
-0.234211 0.283653 1.703229
-0.224359 0.283015 1.699398
-0.214475 0.282279 1.694982
-0.204572 0.281450 1.690003
-0.194783 0.280706 1.685534
-0.185566 0.280754 1.685826
-0.176262 0.280669 1.685311
-0.167277 0.281110 1.687962
-0.158104 0.281268 1.688910
-0.148711 0.281032 1.687490
-0.139714 0.281559 1.690659
-0.130359 0.281391 1.689646
-0.120507 0.280040 1.681539
-0.110933 0.279169 1.676305
-0.100877 0.276814 1.662163
-0.091079 0.274769 1.649887
-0.082173 0.275263 1.652851
-0.073517 0.276818 1.662188
-0.064688 0.278071 1.669711
-0.055818 0.279536 1.678509
-0.046685 0.280000 1.681296
-0.037456 0.279974 1.681139
-0.028207 0.279728 1.679660
-0.018984 0.279626 1.679048
-0.009760 0.279330 1.677272
-0.000556 0.278709 1.673543
0.008602 0.277877 1.668547
0.017740 0.277610 1.666944
0.026897 0.277717 1.667586
0.036104 0.278152 1.670198
0.045281 0.278231 1.670676
0.054628 0.279147 1.676171
0.064209 0.280828 1.686267
0.074071 0.283156 1.700245
0.084490 0.286855 1.722458
0.096044 0.293276 1.761014
0.144371 0.274901 1.650679
0.152073 0.272473 1.636097
0.160303 0.271207 1.628495
0.169212 0.271165 1.628245
0.178571 0.271810 1.632119
0.189361 0.274470 1.648090
0.203706 0.281804 1.692129
-0.345244 0.292054 1.697738
-0.332376 0.288965 1.679784
-0.321461 0.287447 1.670959
-0.312339 0.287490 1.671210
-0.304412 0.288670 1.678066
-0.297333 0.290751 1.690165
-0.291273 0.293995 1.709023
-0.259531 0.300678 1.747871
-0.245270 0.295060 1.715214
-0.234034 0.292777 1.701941
-0.224019 0.291897 1.696824
-0.213858 0.290740 1.690099
-0.204043 0.289972 1.685633
-0.194659 0.289771 1.684465
-0.185360 0.289682 1.683952
-0.176176 0.289775 1.684489
-0.167216 0.290266 1.687346
-0.158062 0.290459 1.688464
-0.148841 0.290544 1.688960
-0.139633 0.290668 1.689682
-0.130612 0.291225 1.692922
-0.120996 0.290442 1.688371
-0.111270 0.289242 1.681393
-0.100937 0.286105 1.663154
-0.090818 0.283008 1.645156
-0.081893 0.283363 1.647215
-0.073290 0.285055 1.657051
-0.064726 0.287404 1.670709
-0.056033 0.289855 1.684955
-0.046809 0.289989 1.685734
-0.037559 0.289988 1.685729
-0.028247 0.289356 1.682055
-0.018978 0.288760 1.678589
-0.009744 0.288047 1.674444
-0.000554 0.287113 1.669018
0.008587 0.286534 1.665649
0.017732 0.286633 1.666223
0.026895 0.286840 1.667428
0.036026 0.286698 1.666605
0.045228 0.287060 1.668710
0.054581 0.288100 1.674751
0.064029 0.289267 1.681538
0.073835 0.291552 1.694818
0.084283 0.295580 1.718237
0.095594 0.301520 1.752765
0.137129 0.287767 1.672819
0.143293 0.281838 1.638350
0.151260 0.279945 1.627346
0.159772 0.279216 1.623110
0.168739 0.279316 1.623691
0.178134 0.280079 1.628128
0.188999 0.282971 1.644939
0.202188 0.288919 1.679517
-0.342600 0.299062 1.684738
-0.330146 0.296183 1.668518
-0.320218 0.295470 1.664501
-0.311607 0.295965 1.667295
-0.303102 0.296596 1.670845
-0.295785 0.298463 1.681365
-0.289690 0.301724 1.699736
-0.256723 0.306913 1.728964
-0.244224 0.303173 1.707896
-0.233572 0.301520 1.698587
-0.223097 0.299968 1.689840
-0.213456 0.299450 1.686925
-0.203963 0.299103 1.684969
-0.194615 0.298946 1.684086
-0.185279 0.298793 1.683223
-0.176093 0.298877 1.683695
-0.167076 0.299274 1.685933
-0.158184 0.299954 1.689764
-0.148861 0.299853 1.689192
-0.139704 0.300092 1.690543
-0.130755 0.300844 1.694778
-0.121321 0.300511 1.692901
-0.110922 0.297536 1.676139
-0.100612 0.294280 1.657797
-0.090723 0.291731 1.643442
-0.081629 0.291460 1.641915
-0.073093 0.293360 1.652618
-0.064681 0.296364 1.669541
-0.055911 0.298452 1.681302
-0.046872 0.299643 1.688009
-0.037603 0.299592 1.687727
-0.028261 0.298729 1.682862
-0.018965 0.297759 1.677397
-0.009739 0.297104 1.673710
-0.000554 0.296057 1.667808
0.008574 0.295237 1.663188
0.017721 0.295592 1.665193
0.026871 0.295729 1.665961
0.036001 0.295636 1.665439
0.045196 0.296009 1.667539
0.054616 0.297477 1.675809
0.064034 0.298515 1.681655
0.073761 0.300553 1.693138
0.084113 0.304392 1.714766
0.095763 0.311687 1.755858
0.136075 0.294665 1.659968
0.142552 0.289323 1.629872
0.150594 0.287602 1.620181
0.159203 0.287096 1.617328
0.168236 0.287367 1.618854
0.177459 0.287919 1.621964
0.188005 0.290462 1.636289
0.198998 0.293432 1.653023
-0.340195 0.306142 1.672910
-0.328945 0.304227 1.662445
-0.319315 0.303744 1.659808
-0.310642 0.304170 1.662133
-0.301842 0.304493 1.663898
-0.294391 0.306239 1.673443
-0.288263 0.309518 1.691361
-0.255195 0.314516 1.718668
-0.243680 0.311849 1.704096
-0.233070 0.310172 1.694932
-0.222734 0.308736 1.687086
-0.213321 0.308512 1.685861
-0.203981 0.308376 1.685120
-0.194317 0.307715 1.681507
-0.185202 0.307901 1.682522
-0.175975 0.307909 1.682568
-0.166769 0.307959 1.682841
-0.158024 0.308915 1.688062
-0.148602 0.308583 1.686249
-0.139810 0.309603 1.691824
-0.130725 0.310072 1.694388
-0.121475 0.310194 1.695054
-0.110754 0.306268 1.673600
-0.100847 0.304086 1.661674
-0.090748 0.300833 1.643899
-0.081579 0.300285 1.640905
-0.072977 0.301946 1.649981
-0.064763 0.305912 1.671652
-0.056109 0.308769 1.687266
-0.046961 0.309493 1.691222
-0.037578 0.308646 1.686595
-0.028254 0.307891 1.682470
-0.018978 0.307169 1.678522
-0.009741 0.306335 1.673968
-0.000554 0.305466 1.669219
0.008595 0.305126 1.667357
0.017739 0.305036 1.666870
0.026825 0.304355 1.663145
0.035955 0.304386 1.663314
0.045206 0.305224 1.667892
0.054455 0.305771 1.670884
0.063955 0.307362 1.679577
0.073706 0.309609 1.691859
0.084023 0.313468 1.712946
0.096097 0.322443 1.761987
0.134560 0.300391 1.641482
0.141650 0.296380 1.619565
0.150112 0.295543 1.614994
0.158776 0.295177 1.612990
0.167319 0.294635 1.610029
0.176863 0.295820 1.616509
0.187103 0.298002 1.628433
0.198220 0.301319 1.646557
-0.354775 0.320196 1.698772
-0.338397 0.313655 1.664070
-0.328299 0.312734 1.659182
-0.319363 0.312899 1.660057
-0.311133 0.313785 1.664757
-0.301413 0.313176 1.661530
-0.293252 0.314201 1.666967
-0.287510 0.317967 1.686947
-0.254291 0.322798 1.712579
-0.242691 0.319895 1.697175
-0.232219 0.318307 1.688749
-0.222428 0.317557 1.684769
-0.212933 0.317183 1.682788
-0.203726 0.317226 1.683016
-0.194321 0.316948 1.681538
-0.185263 0.317238 1.683078
-0.175853 0.316923 1.681406
-0.166718 0.317096 1.682325
-0.157807 0.317740 1.685745
-0.148620 0.317875 1.686457
-0.139490 0.318156 1.687948
-0.130501 0.318824 1.691493
-0.121035 0.318338 1.688915
-0.110844 0.315706 1.674950
-0.101099 0.313986 1.665828
-0.090596 0.309331 1.641131
-0.081422 0.308692 1.637738
-0.072825 0.310352 1.646544
-0.064805 0.315290 1.672743
-0.056175 0.318400 1.689242
-0.046872 0.318168 1.688014
-0.037554 0.317701 1.685534
-0.028260 0.317190 1.682826
-0.018962 0.316120 1.677150
-0.009719 0.314794 1.670112
-0.000553 0.314151 1.666704
0.008577 0.313611 1.663837
0.017673 0.313004 1.660618
0.026806 0.313256 1.661953
0.035965 0.313601 1.663786
0.045173 0.314146 1.666675
0.054379 0.314497 1.668539
0.063814 0.315884 1.675894
0.073472 0.317884 1.686506
0.083843 0.322173 1.709261
0.095696 0.330725 1.754635
0.134011 0.308136 1.634789
0.141303 0.304518 1.615594
0.149880 0.303934 1.612496
0.158414 0.303333 1.609305
0.166761 0.302457 1.604661
0.176484 0.304039 1.613052
0.186981 0.306738 1.627373
0.198208 0.310335 1.646458
-0.350851 0.325873 1.679983
-0.337384 0.321819 1.659088
-0.327813 0.321362 1.656727
-0.319328 0.321972 1.659872
-0.311525 0.323326 1.666854
-0.302367 0.323314 1.666793
-0.293010 0.323081 1.665592
-0.288201 0.328009 1.690998
-0.253238 0.330820 1.705491
-0.242328 0.328715 1.694636
-0.232264 0.327635 1.689070
-0.222038 0.326228 1.681815
-0.212707 0.326072 1.681009
-0.203450 0.326019 1.680736
-0.193983 0.325607 1.678614
-0.184766 0.325597 1.678561
-0.175723 0.325906 1.680156
-0.166766 0.326421 1.682807
-0.157600 0.326560 1.683529
-0.148349 0.326532 1.683383
-0.139305 0.326985 1.685718
-0.130220 0.327399 1.687852
-0.121017 0.327556 1.688662
-0.110970 0.325266 1.676858
-0.101138 0.323251 1.666470
-0.090493 0.317977 1.639279
-0.081237 0.316956 1.634014
-0.072875 0.319607 1.647683
-0.064749 0.324188 1.671300
-0.056115 0.327319 1.687439
-0.046884 0.327514 1.688446
-0.037572 0.327103 1.686327
-0.028254 0.326347 1.682427
-0.018921 0.324621 1.673530
-0.009704 0.323459 1.667539
-0.000553 0.322836 1.664328
0.008567 0.322362 1.661882
0.017665 0.321974 1.659884
0.026800 0.322304 1.661584
0.035998 0.323022 1.665286
0.045108 0.322826 1.664278
0.054306 0.323216 1.666289
0.063735 0.324674 1.673804
