# .PCD v0.7 - Point Cloud Data file format
VERSION 0.7
FIELDS x y z
SIZE 4 4 4
TYPE F F F
COUNT 1 1 1
WIDTH 1695
HEIGHT 1
VIEWPOINT 0 0 0 1 0 0 0
POINTS 1695
DATA ascii
0.054658 -0.671118 2.016649
0.066852 -0.682633 2.051250
0.078014 -0.681821 2.048808
-0.103222 -0.679555 2.076232
-0.090095 -0.666722 2.037025
-0.078608 -0.664104 2.029026
-0.067243 -0.661823 2.022058
-0.056015 -0.660264 2.017294
-0.044880 -0.659292 2.014324
-0.033868 -0.660093 2.016773
-0.022737 -0.658204 2.010999
-0.011688 -0.657390 2.008513
-0.000667 -0.657580 2.009093
0.010359 -0.657720 2.009521
0.021338 -0.656246 2.005018
0.032310 -0.655638 2.003160
0.043615 -0.660383 2.017659
0.054961 -0.663701 2.027795
0.066371 -0.666551 2.036504
-0.103300 -0.668666 2.077798
-0.090503 -0.658514 2.046252
-0.078781 -0.654406 2.033486
-0.067410 -0.652345 2.027082
-0.056106 -0.650243 2.020551
-0.044894 -0.648435 2.014933
-0.033756 -0.646870 2.010071
-0.022694 -0.645960 2.007243
-0.011696 -0.646834 2.009959
-0.000668 -0.647348 2.011554
0.010374 -0.647627 2.012421
0.021376 -0.646404 2.008621
0.032436 -0.647167 2.010992
0.043482 -0.647332 2.011505
0.054845 -0.651206 2.023545
0.067432 -0.665853 2.069057
-0.103108 -0.656045 2.073941
-0.091146 -0.651880 2.060776
-0.079002 -0.645057 2.039207
-0.067354 -0.640688 2.025393
-0.056053 -0.638553 2.018645
-0.044801 -0.636068 2.010789
-0.033809 -0.636850 2.013260
-0.022756 -0.636674 2.012704
-0.011694 -0.635689 2.009589
-0.000668 -0.636276 2.011447
0.010375 -0.636652 2.012635
0.021396 -0.635974 2.010490
0.032576 -0.638873 2.019657
0.043750 -0.640218 2.023908
0.054858 -0.640254 2.024021
0.066846 -0.648808 2.051063
-0.114697 -0.645842 2.077729
-0.102853 -0.643069 2.068809
-0.091221 -0.641099 2.062469
-0.078980 -0.633686 2.038621
-0.067351 -0.629547 2.025305
-0.055996 -0.626841 2.016600
-0.044909 -0.626532 2.015607
-0.033801 -0.625656 2.012789
-0.022773 -0.626102 2.014222
-0.011737 -0.626945 2.016936
-0.000670 -0.627318 2.018135
0.010398 -0.626977 2.017039
0.021509 -0.628244 2.021115
0.032661 -0.629443 2.024970
0.043938 -0.631815 2.032602
0.055284 -0.634033 2.039737
0.067386 -0.642711 2.067656
-0.127672 -0.642364 2.103674
-0.114203 -0.631711 2.068787
-0.102783 -0.631289 2.067406
-0.091172 -0.629444 2.061364
-0.079157 -0.623898 2.043200
-0.067389 -0.618785 2.026454
-0.055972 -0.615516 2.015751
-0.044850 -0.614671 2.012983
-0.033815 -0.614855 2.013585
-0.022782 -0.615281 2.014981
-0.011744 -0.616261 2.018189
-0.000672 -0.617936 2.023676
0.010439 -0.618349 2.025027
0.021541 -0.618060 2.024082
0.032730 -0.619622 2.029195
0.044056 -0.622335 2.038080
0.055540 -0.625724 2.049182
0.067297 -0.630526 2.064905
-0.126671 -0.625872 2.087171
-0.114015 -0.619335 2.065371
-0.102544 -0.618502 2.062594
-0.091117 -0.617760 2.060120
-0.079188 -0.612925 2.043993
-0.067387 -0.607647 2.026395
-0.056071 -0.605521 2.019303
-0.044873 -0.603931 2.014002
-0.033870 -0.604795 2.016882
-0.022823 -0.605308 2.018593
-0.011746 -0.605278 2.018492
-0.000672 -0.606818 2.023629
0.010435 -0.606999 2.024233
0.021506 -0.605987 2.020856
0.032748 -0.608822 2.030313
0.044131 -0.612195 2.041560
0.055609 -0.615241 2.051719
0.067575 -0.621755 2.073440
-0.127203 -0.617003 2.095947
-0.114481 -0.610488 2.073814
-0.102648 -0.607802 2.064691
-0.090824 -0.604508 2.053502
-0.079195 -0.601766 2.044188
-0.067407 -0.596704 2.026991
-0.056006 -0.593756 2.016976
-0.044907 -0.593333 2.015539
-0.033819 -0.592831 2.013836
-0.022785 -0.593264 2.015305
-0.011754 -0.594630 2.019945
-0.000672 -0.595728 2.023675
0.010421 -0.595074 2.021454
0.021525 -0.595409 2.022592
0.032805 -0.598720 2.033840
0.044131 -0.600990 2.041553
0.055657 -0.604509 2.053506
0.068009 -0.614297 2.086755
-0.115770 -0.605854 2.097164
-0.102924 -0.598073 2.070231
-0.090636 -0.592011 2.049247
-0.079230 -0.590810 2.045091
-0.067575 -0.587038 2.032034
-0.056068 -0.583331 2.019201
-0.044914 -0.582361 2.015844
-0.033867 -0.582610 2.016704
-0.022832 -0.583392 2.019413
-0.011772 -0.584443 2.023048
-0.000672 -0.585123 2.025405
0.010429 -0.584428 2.022996
0.021557 -0.585189 2.025631
0.032893 -0.589153 2.039352
0.044177 -0.590401 2.043673
0.055744 -0.594161 2.056689
0.068394 -0.606257 2.098561
-0.102812 -0.586077 2.067985
-0.090290 -0.578548 2.041419
-0.078919 -0.577309 2.037048
-0.067483 -0.575108 2.029282
-0.056237 -0.573978 2.025292
-0.045080 -0.573417 2.023313
-0.033975 -0.573370 2.023146
-0.022925 -0.574646 2.027650
-0.011790 -0.574187 2.026030
-0.000672 -0.573701 2.024315
0.010451 -0.574533 2.027253
0.021571 -0.574435 2.026905
0.032911 -0.578268 2.040431
0.044195 -0.579422 2.044501
0.055748 -0.582924 2.056859
0.068046 -0.591723 2.087905
-0.103058 -0.576105 2.072934
-0.090537 -0.568900 2.047007
-0.078986 -0.566617 2.038792
-0.067538 -0.564437 2.030949
-0.056431 -0.564800 2.032255
-0.045357 -0.565770 2.035746
-0.034118 -0.564634 2.031657
-0.023012 -0.565649 2.035310
-0.011826 -0.564823 2.032338
-0.000673 -0.563110 2.026176
0.010444 -0.563038 2.025914
0.021583 -0.563630 2.028046
0.032846 -0.565951 2.036397
0.044165 -0.567820 2.043120
0.055835 -0.572532 2.060077
-0.103838 -0.569004 2.088621
-0.091143 -0.561403 2.060720
-0.078943 -0.555126 2.037676
-0.067845 -0.555807 2.040176
-0.056508 -0.554409 2.035048
-0.045464 -0.555904 2.040533
-0.034253 -0.555670 2.039674
-0.023055 -0.555518 2.039117
-0.011835 -0.554079 2.033835
-0.000674 -0.552707 2.028800
0.010448 -0.552158 2.026784
0.021598 -0.552888 2.029465
0.032872 -0.555221 2.038028
0.044156 -0.556498 2.042714
0.056071 -0.563596 2.068767
-0.102558 -0.550672 2.062878
-0.089992 -0.543149 2.034697
-0.078807 -0.543007 2.034163
-0.067741 -0.543773 2.037034
-0.056450 -0.542681 2.032941
-0.045629 -0.546679 2.047920
-0.034409 -0.546952 2.048942
-0.023147 -0.546520 2.047325
-0.011854 -0.543804 2.037148
-0.000673 -0.541410 2.028183
0.010446 -0.540930 2.026383
0.021547 -0.540465 2.024642
0.032770 -0.542356 2.031724
0.043989 -0.543228 2.034993
0.055882 -0.550386 2.061807
-0.104301 -0.548519 2.097936
-0.091256 -0.539457 2.063276
-0.080956 -0.546349 2.089636
-0.068993 -0.542443 2.074696
-0.057604 -0.542394 2.074511
-0.045910 -0.538746 2.060557
-0.034539 -0.537743 2.056720
-0.023116 -0.534558 2.044539
-0.011835 -0.531769 2.033870
-0.000674 -0.530890 2.030511
0.010400 -0.527469 2.017426
0.021396 -0.525642 2.010438
0.032427 -0.525638 2.010424
0.042811 -0.517815 1.980503
0.053472 -0.515823 1.972882
-0.046433 -0.533451 2.084043
-0.034652 -0.528173 2.063421
-0.022977 -0.520201 2.032279
-0.011598 -0.510153 1.993022
-0.000653 -0.503637 1.967569
0.010024 -0.497732 1.944498
0.020470 -0.492353 1.923484
0.031337 -0.497306 1.942834
0.041881 -0.495930 1.937456
0.052493 -0.495752 1.936765
0.063408 -0.498009 1.945581
0.074936 -0.503739 1.967965
-0.034509 -0.514719 2.054911
-0.021971 -0.486744 1.943227
-0.011047 -0.475533 1.898470
-0.000625 -0.471811 1.883611
0.009708 -0.471694 1.883144
0.020035 -0.471560 1.882607
0.030496 -0.473583 1.890686
0.041154 -0.476871 1.903810
0.051978 -0.480359 1.917738
0.062725 -0.482085 1.924627
0.073942 -0.486402 1.941862
0.086167 -0.495427 1.977894
-0.032241 -0.470365 1.919894
-0.021431 -0.464384 1.895482
-0.010940 -0.460588 1.879990
-0.000621 -0.458011 1.869469
0.009621 -0.457249 1.866361
0.019892 -0.457932 1.869146
0.030186 -0.458501 1.871470
0.040549 -0.459571 1.875838
0.051272 -0.463455 1.891691
0.062260 -0.468029 1.910359
0.073419 -0.472380 1.928121
0.084963 -0.477807 1.950272
0.097096 -0.484953 1.979439
-0.031905 -0.455031 1.899856
-0.021250 -0.450145 1.879456
-0.010883 -0.447953 1.870307
-0.000619 -0.446941 1.866077
0.009590 -0.445558 1.860304
0.019786 -0.445290 1.859185
0.030032 -0.445947 1.861930
0.040425 -0.447907 1.870112
0.050923 -0.449997 1.878838
0.061550 -0.452332 1.888589
0.072584 -0.456549 1.906193
0.084149 -0.462630 1.931586
0.096735 -0.472332 1.972094
-0.043297 -0.454767 1.943276
-0.031702 -0.441775 1.887760
-0.021106 -0.436856 1.866740
-0.010827 -0.435414 1.860578
-0.000617 -0.435040 1.858980
0.009573 -0.434565 1.856950
0.019736 -0.433996 1.854519
0.029918 -0.434087 1.854905
0.040187 -0.435071 1.859112
0.050526 -0.436254 1.864169
0.060876 -0.437124 1.867884
0.071599 -0.440036 1.880329
0.082816 -0.444867 1.900972
0.095236 -0.454358 1.941528
-0.054305 -0.446946 1.955710
-0.042576 -0.436711 1.910924
-0.031599 -0.430017 1.881634
-0.021087 -0.426224 1.865039
-0.010803 -0.424280 1.856529
-0.000616 -0.423988 1.855252
0.009549 -0.423301 1.852248
0.019706 -0.423164 1.851648
0.029860 -0.423082 1.851291
0.040096 -0.423906 1.854895
0.050364 -0.424667 1.858223
0.060688 -0.425562 1.862142
0.071206 -0.427359 1.870005
0.082420 -0.432359 1.891881
0.094052 -0.438188 1.917389
0.107251 -0.449412 1.966503
-0.065071 -0.436448 1.956755
-0.053564 -0.430264 1.929033
-0.042332 -0.423779 1.899955
-0.031498 -0.418348 1.875607
-0.021037 -0.415008 1.860631
-0.010797 -0.413857 1.855473
-0.000614 -0.412607 1.849869
0.009529 -0.412303 1.848505
0.019653 -0.411905 1.846720
0.029779 -0.411797 1.846237
0.039998 -0.412716 1.850355
0.050250 -0.413529 1.854004
0.060612 -0.414820 1.859789
0.070986 -0.415814 1.864246
0.081852 -0.419072 1.878854
0.093537 -0.425325 1.906886
0.106483 -0.435478 1.952406
-0.076080 -0.427240 1.963784
-0.064608 -0.422682 1.942833
-0.053494 -0.419129 1.926503
-0.042407 -0.414089 1.903335
-0.031501 -0.408099 1.875804
-0.021036 -0.404788 1.860584
-0.010786 -0.403250 1.853515
-0.000612 -0.401128 1.843760
0.009501 -0.400945 1.842921
0.019586 -0.400390 1.840368
0.029664 -0.400124 1.839147
0.039793 -0.400495 1.840851
0.050035 -0.401633 1.846081
0.060362 -0.402950 1.852137
0.070692 -0.403900 1.856504
0.081574 -0.407374 1.872473
0.093416 -0.414328 1.904436
0.106450 -0.424636 1.951814
0.120773 -0.437732 2.012011
-0.087933 -0.421631 1.988145
-0.075500 -0.413287 1.948799
-0.064152 -0.409113 1.929121
-0.053284 -0.406951 1.918922
-0.042336 -0.402967 1.900137
-0.031532 -0.398199 1.877654
-0.021063 -0.395075 1.862924
-0.010801 -0.393625 1.856088
-0.000613 -0.391537 1.846243
0.009496 -0.390662 1.842114
0.019559 -0.389751 1.837819
0.029616 -0.389392 1.836128
0.039723 -0.389708 1.837618
0.049964 -0.390947 1.843462
0.060316 -0.392483 1.850703
0.070692 -0.393717 1.856522
0.081789 -0.398144 1.877395
0.093672 -0.404982 1.909639
0.106113 -0.412616 1.945639
0.118946 -0.420237 1.981574
-0.086546 -0.404242 1.956782
-0.075154 -0.400749 1.939873
-0.064038 -0.397818 1.925682
-0.053238 -0.396078 1.917260
-0.042537 -0.394403 1.909154
-0.031665 -0.389528 1.885556
-0.021066 -0.384910 1.863199
-0.010768 -0.382265 1.850397
-0.000613 -0.381369 1.846059
0.009476 -0.379741 1.838181
0.019525 -0.379007 1.834628
0.029586 -0.378944 1.834323
0.039674 -0.379156 1.835349
0.049832 -0.379822 1.838572
0.060165 -0.381376 1.846092
0.070718 -0.383668 1.857190
0.081830 -0.388041 1.878356
0.094210 -0.396772 1.920621
0.105962 -0.401368 1.942869
0.119045 -0.409704 1.983217
-0.097652 -0.394995 1.964189
-0.086135 -0.391634 1.947474
-0.075020 -0.389411 1.936422
-0.064066 -0.387422 1.926531
-0.053284 -0.385893 1.918925
-0.042620 -0.384676 1.912876
-0.031815 -0.380981 1.894500
-0.021122 -0.375684 1.868161
-0.010778 -0.372471 1.852185
-0.000612 -0.370509 1.842427
0.009465 -0.369222 1.836029
0.019493 -0.368347 1.831678
0.029565 -0.368609 1.832979
0.039687 -0.369207 1.835952
0.049816 -0.369619 1.838001
0.060120 -0.370968 1.844711
0.070752 -0.373661 1.858100
0.082227 -0.379563 1.887452
0.094267 -0.386464 1.921766
0.105932 -0.390596 1.942317
0.119055 -0.398854 1.983378
-0.097512 -0.383669 1.961384
-0.086069 -0.380657 1.945989
-0.074908 -0.378218 1.933518
-0.064079 -0.376929 1.926932
-0.053380 -0.376042 1.922398
-0.042690 -0.374798 1.916037
-0.032060 -0.373439 1.909087
-0.021223 -0.367187 1.877128
-0.010800 -0.363041 1.855932
-0.000611 -0.360024 1.840507
0.009447 -0.358475 1.832592
0.019475 -0.357967 1.829996
0.029498 -0.357741 1.828839
0.039625 -0.358573 1.833091
0.049830 -0.359634 1.838513
0.060178 -0.361194 1.846489
0.070990 -0.364684 1.864330
0.082447 -0.370198 1.892518
0.094213 -0.375705 1.920672
0.105375 -0.377941 1.932104
0.118276 -0.385432 1.970398
-0.109303 -0.376450 1.980022
-0.097412 -0.372522 1.959363
-0.086073 -0.369998 1.946087
-0.075091 -0.368509 1.938255
-0.064195 -0.367016 1.930401
-0.053570 -0.366796 1.929247
-0.042863 -0.365761 1.923804
-0.032146 -0.363938 1.914212
-0.021205 -0.356580 1.875512
-0.010782 -0.352258 1.852782
-0.000610 -0.349579 1.838688
0.009450 -0.348537 1.833208
0.019427 -0.347062 1.825451
0.029421 -0.346793 1.824037
0.039516 -0.347557 1.828053
0.049717 -0.348748 1.834317
0.060056 -0.350347 1.842730
0.071035 -0.354680 1.865518
0.082828 -0.361474 1.901253
0.094174 -0.365014 1.919872
0.105630 -0.368228 1.936775
0.118462 -0.375209 1.973497
-0.108956 -0.364422 1.973722
-0.097393 -0.361703 1.958996
-0.086206 -0.359875 1.949097
-0.075145 -0.358130 1.939646
-0.064230 -0.356616 1.931446
-0.053650 -0.356740 1.932115
-0.043033 -0.356616 1.931444
-0.032224 -0.354294 1.918867
-0.021134 -0.345131 1.869240
-0.010782 -0.342098 1.852817
-0.000611 -0.339573 1.839142
0.009430 -0.337735 1.829186
0.019409 -0.336737 1.823781
0.029424 -0.336829 1.824275
0.039422 -0.336723 1.823701
0.049613 -0.337974 1.830478
0.059968 -0.339740 1.840043
0.070895 -0.343765 1.861845
0.083147 -0.352394 1.908578
0.094601 -0.356088 1.928586
0.105830 -0.358278 1.940447
0.118702 -0.365119 1.977495
-0.121822 -0.359605 2.007284
-0.108736 -0.352880 1.969750
-0.097528 -0.351438 1.961699
-0.086315 -0.349620 1.951549
-0.075209 -0.347783 1.941298
-0.064452 -0.347218 1.938143
-0.053787 -0.347024 1.937063
-0.043091 -0.346477 1.934008
-0.032373 -0.345353 1.927731
-0.021156 -0.335221 1.871175
-0.010788 -0.332123 1.853882
-0.000610 -0.329019 1.836559
0.009410 -0.327019 1.825396
0.019408 -0.326716 1.823701
0.029384 -0.326369 1.821765
0.039326 -0.325921 1.819264
0.049414 -0.326618 1.823156
0.059890 -0.329212 1.837633
0.070969 -0.333897 1.863788
0.083702 -0.344203 1.921313
0.094907 -0.346622 1.934818
0.106425 -0.349585 1.951358
0.119448 -0.356495 1.989926
-0.121422 -0.347446 2.000693
-0.109129 -0.343307 1.976861
-0.097989 -0.342284 1.970968
-0.086525 -0.339738 1.956312
-0.075503 -0.338447 1.948875
-0.064774 -0.338264 1.947822
-0.053929 -0.337282 1.942167
-0.043166 -0.336457 1.937414
-0.032317 -0.334193 1.924380
-0.021229 -0.326082 1.877676
-0.010766 -0.321299 1.850134
-0.000608 -0.318038 1.831356
0.009396 -0.316513 1.822571
0.019346 -0.315700 1.817894
0.029287 -0.315331 1.815767
0.039195 -0.314882 1.813184
0.049255 -0.315595 1.817286
0.059512 -0.317116 1.826048
0.070899 -0.323350 1.861945
0.083909 -0.334486 1.926068
0.095135 -0.336813 1.939469
0.107310 -0.341696 1.967586
0.121377 -0.351157 2.022063
-0.121858 -0.337675 2.007870
-0.109381 -0.333229 1.981437
-0.098012 -0.331549 1.971447
-0.086732 -0.329788 1.960976
-0.075659 -0.328433 1.952919
-0.064773 -0.327569 1.947781
-0.053945 -0.326718 1.942720
-0.043149 -0.325691 1.936612
-0.032388 -0.324343 1.928596
-0.021220 -0.315646 1.876882
-0.010726 -0.310001 1.843318
-0.000606 -0.307155 1.826398
0.009369 -0.305657 1.817487
0.019297 -0.304936 1.813200
0.029176 -0.304213 1.808904
0.039004 -0.303453 1.804384
0.049086 -0.304574 1.811046
0.059446 -0.306756 1.824024
0.070775 -0.312588 1.858701
0.084107 -0.324683 1.930619
0.095604 -0.327779 1.949028
0.108355 -0.334120 1.986731
-0.122514 -0.328415 2.018673
-0.109828 -0.323673 1.989525
-0.098260 -0.321542 1.976428
-0.087073 -0.320283 1.968692
-0.075897 -0.318715 1.959049
-0.064888 -0.317445 1.951246
-0.053991 -0.316333 1.944407
-0.043184 -0.315326 1.938222
-0.032437 -0.314243 1.931564
-0.021148 -0.304303 1.870465
-0.010695 -0.299007 1.837910
-0.000606 -0.296859 1.824706
0.009350 -0.295068 1.813700
0.019219 -0.293797 1.805884
0.029138 -0.293899 1.806515
0.038998 -0.293503 1.804079
0.049096 -0.294694 1.811403
0.059433 -0.296680 1.823610
0.070967 -0.303210 1.863749
0.084661 -0.316158 1.943333
0.096424 -0.319804 1.965742
0.109658 -0.327107 2.010633
0.124720 -0.338028 2.077763
-0.110525 -0.314742 2.002159
-0.098850 -0.312561 1.988286
-0.087251 -0.310115 1.972725
-0.076005 -0.308404 1.961838
-0.064932 -0.306944 1.952554
-0.054080 -0.306167 1.947613
-0.043274 -0.305324 1.942249
-0.032438 -0.303654 1.931624
-0.021106 -0.293461 1.866782
-0.010664 -0.288090 1.832619
-0.000604 -0.286110 1.820021
0.009324 -0.284328 1.808686
0.019166 -0.283103 1.800895
0.029044 -0.283068 1.800672
0.038896 -0.282861 1.799354
0.048895 -0.283591 1.803996
0.059311 -0.286088 1.819880
0.071289 -0.294311 1.872194
0.085289 -0.307761 1.957752
0.097384 -0.312097 1.985331
0.110683 -0.319027 2.029419
0.124611 -0.326340 2.075937
-0.111568 -0.306623 2.021055
-0.099330 -0.303118 1.997952
-0.087571 -0.300387 1.979952
-0.075972 -0.297508 1.960977
-0.064865 -0.295927 1.950552
-0.054028 -0.295195 1.945730
-0.043251 -0.294511 1.941219
-0.032373 -0.292464 1.927726
-0.021057 -0.282559 1.862440
-0.010636 -0.277307 1.827827
-0.000603 -0.275407 1.815298
0.009305 -0.273833 1.804923
0.019181 -0.273442 1.802346
0.029029 -0.273054 1.799788
0.038843 -0.272616 1.796907
0.048832 -0.273343 1.801694
0.059279 -0.275954 1.818907
0.071702 -0.285684 1.883039
0.085670 -0.298346 1.966499
0.097804 -0.302499 1.993874
0.111467 -0.310074 2.043800
0.124225 -0.313975 2.069516
-0.111788 -0.296115 2.025038
-0.099264 -0.291959 1.996613
-0.087286 -0.288580 1.973506
-0.075914 -0.286532 1.959501
-0.064861 -0.285208 1.950445
-0.054006 -0.284400 1.944921
-0.043261 -0.283926 1.941675
-0.032445 -0.282510 1.931991
-0.021064 -0.272422 1.863006
-0.010630 -0.267118 1.826736
-0.000600 -0.264091 1.806033
0.009257 -0.262572 1.795648
0.019106 -0.262524 1.795313
0.028928 -0.262259 1.793504
0.038840 -0.262740 1.796792
0.048861 -0.263612 1.802755
0.059411 -0.266563 1.822940
0.072446 -0.278210 1.902586
0.085989 -0.288625 1.973815
0.098293 -0.293019 2.003860
0.111744 -0.299601 2.048873
0.124306 -0.302815 2.070856
-0.111310 -0.283783 2.016366
-0.098313 -0.278313 1.977499
-0.086783 -0.276152 1.962142
-0.075764 -0.275233 1.955611
-0.064927 -0.274785 1.952427
-0.054054 -0.273974 1.946667
-0.043260 -0.273264 1.941620
-0.032471 -0.272126 1.933539
-0.020960 -0.260910 1.853844
-0.010593 -0.256206 1.820420
-0.000598 -0.253457 1.800888
0.009238 -0.252209 1.792017
0.019051 -0.251949 1.790176
0.028849 -0.251731 1.788621
0.038687 -0.251881 1.789689
0.048662 -0.252683 1.795391
0.059335 -0.256233 1.820614
0.072909 -0.269481 1.914742
0.086419 -0.279183 1.983678
0.098846 -0.283607 2.015116
0.111570 -0.287911 2.045694
-0.110105 -0.269768 1.994548
-0.098031 -0.266693 1.971811
-0.086814 -0.265481 1.962846
-0.075663 -0.264150 1.953008
-0.064899 -0.263958 1.951587
-0.054013 -0.263093 1.945190
-0.043264 -0.262635 1.941808
-0.032485 -0.261634 1.934408
-0.021084 -0.252224 1.864835
-0.010540 -0.244992 1.811363
-0.000595 -0.242566 1.793427
0.009211 -0.241669 1.786790
0.019005 -0.241530 1.785764
0.028746 -0.241053 1.782238
0.038585 -0.241427 1.785003
0.048615 -0.242598 1.793660
0.059376 -0.246412 1.821861
0.074095 -0.263188 1.945896
0.087076 -0.270339 1.998770
0.098971 -0.272897 2.017680
0.111450 -0.276387 2.043482
-0.123379 -0.263806 2.032937
-0.109602 -0.257642 1.985438
-0.098170 -0.256237 1.974614
-0.086835 -0.254771 1.963315
-0.075638 -0.253349 1.952357
-0.064768 -0.252737 1.947639
-0.054005 -0.252383 1.944909
-0.043269 -0.252007 1.942017
-0.032490 -0.251056 1.934689
-0.021202 -0.243339 1.875215
-0.010465 -0.233359 1.798310
-0.000592 -0.231328 1.782654
0.009169 -0.230792 1.778525
0.018933 -0.230854 1.779005
0.028680 -0.230740 1.778128
0.038465 -0.230908 1.779418
0.048560 -0.232497 1.791663
0.059470 -0.236790 1.824747
0.075281 -0.256551 1.977029
0.087457 -0.260508 2.007521
0.099200 -0.262432 2.022349
0.111453 -0.265181 2.043534
-0.122384 -0.250612 2.016531
-0.109402 -0.246297 1.981815
-0.097849 -0.244600 1.968156
-0.086589 -0.243306 1.957749
-0.075634 -0.242626 1.952273
-0.064872 -0.242438 1.950763
-0.054050 -0.241910 1.946512
-0.043375 -0.241941 1.946758
-0.032567 -0.241015 1.939310
-0.021101 -0.231947 1.866344
-0.010400 -0.222124 1.787302
-0.000590 -0.220893 1.777397
0.009155 -0.220705 1.775886
0.018906 -0.220779 1.776481
0.028656 -0.220797 1.776630
0.038488 -0.221279 1.780505
0.048530 -0.222524 1.790526
0.059627 -0.227377 1.829571
0.075699 -0.247066 1.987999
0.087393 -0.249308 2.006037
0.099255 -0.251474 2.023465
0.112005 -0.255226 2.053657
-0.109667 -0.235993 1.986616
-0.097938 -0.234014 1.969955
-0.086692 -0.232840 1.960068
-0.075795 -0.232407 1.956426
-0.065030 -0.232299 1.955520
-0.054270 -0.232172 1.954445
-0.043397 -0.231379 1.947772
-0.032444 -0.229502 1.931976
-0.020659 -0.217061 1.827239
-0.010382 -0.211936 1.784097
-0.000589 -0.210808 1.774604
0.009147 -0.210784 1.774404
0.018875 -0.210689 1.773601
0.028639 -0.210923 1.775576
0.038475 -0.211439 1.779912
0.048454 -0.212367 1.787726
0.059643 -0.217395 1.830051
0.076026 -0.237180 1.996603
0.087698 -0.239133 2.013049
0.099622 -0.241260 2.030954
0.113276 -0.246727 2.076971
-0.109931 -0.225634 1.991393
-0.097884 -0.223082 1.968870
-0.086727 -0.222175 1.960864
-0.075923 -0.222046 1.959731
-0.065100 -0.221806 1.957612
-0.054338 -0.221723 1.956881
-0.043426 -0.220836 1.949050
-0.031781 -0.214425 1.892465
-0.020263 -0.203065 1.792202
-0.010337 -0.201278 1.776433
-0.000588 -0.200637 1.770778
0.009136 -0.200792 1.772143
0.018860 -0.200801 1.772226
0.028613 -0.200999 1.773976
0.038399 -0.201271 1.776375
0.048461 -0.202586 1.787981
0.059434 -0.206629 1.823662
0.076095 -0.226428 1.998401
0.087853 -0.228490 2.016598
0.100557 -0.232275 2.050004
-0.111252 -0.217287 2.015325
-0.098487 -0.213586 1.980995
-0.087176 -0.212510 1.971019
-0.076061 -0.211675 1.963277
-0.065137 -0.211185 1.958728
-0.054311 -0.210883 1.955928
-0.043137 -0.208747 1.936114
-0.030499 -0.195810 1.816128
-0.020093 -0.191612 1.777192
-0.010282 -0.190509 1.766963
-0.000587 -0.190578 1.767604
0.009107 -0.190472 1.766618
0.018845 -0.190922 1.770788
0.028559 -0.190905 1.770630
0.038397 -0.191516 1.776301
0.048372 -0.192421 1.784693
0.059024 -0.195265 1.811073
0.076585 -0.216850 2.011274
0.088339 -0.218628 2.027765
0.100880 -0.221736 2.056590
-0.124966 -0.210707 2.059087
-0.111630 -0.206929 2.022167
-0.099094 -0.203964 1.993197
-0.087499 -0.202443 1.978329
-0.076358 -0.201688 1.970955
-0.065275 -0.200862 1.962881
-0.054240 -0.199886 1.953345
-0.041835 -0.192139 1.877641
-0.030077 -0.183276 1.791028
-0.020059 -0.181548 1.774137
-0.010282 -0.180812 1.766944
-0.000586 -0.180636 1.765228
0.009109 -0.180809 1.766914
0.018827 -0.181031 1.769088
0.028543 -0.181088 1.769640
0.038460 -0.182064 1.779183
0.048636 -0.183626 1.794446
0.076820 -0.206446 2.017447
0.089022 -0.209104 2.043427
0.101685 -0.212130 2.072997
-0.125226 -0.199822 2.063362
-0.111851 -0.196221 2.026179
-0.099515 -0.193847 2.001662
-0.087606 -0.191822 1.980744
-0.076493 -0.191211 1.974444
-0.065365 -0.190355 1.965599
-0.053959 -0.188189 1.943239
-0.040453 -0.175829 1.815609
-0.029891 -0.172377 1.779961
-0.019989 -0.171219 1.767999
-0.010276 -0.171023 1.765979
-0.000586 -0.170807 1.763749
0.009099 -0.170928 1.764995
0.018800 -0.171074 1.766503
0.028576 -0.171574 1.771669
0.038661 -0.173204 1.788504
0.049383 -0.176448 1.821994
0.064780 -0.192494 1.987685
0.077014 -0.195870 2.022548
0.089472 -0.198892 2.053753
-0.125005 -0.188169 2.059729
-0.112170 -0.185631 2.031956
-0.100257 -0.184227 2.016587
-0.088330 -0.182447 1.997104
-0.076685 -0.180829 1.979389
-0.065373 -0.179591 1.965838
-0.039898 -0.163595 1.790742
-0.029788 -0.162048 1.773806
-0.019958 -0.161262 1.765204
-0.010267 -0.161182 1.764324
-0.000586 -0.161230 1.764854
0.009082 -0.160952 1.761806
0.018797 -0.161360 1.766277
0.028693 -0.162519 1.778958
0.039130 -0.165373 1.810199
0.065397 -0.183317 2.006624
0.077118 -0.185022 2.025285
0.089596 -0.187884 2.056617
-0.125500 -0.177567 2.067883
-0.112496 -0.174989 2.037859
-0.100549 -0.173667 2.022470
-0.088839 -0.172478 2.008623
-0.077016 -0.170702 1.987935
-0.065299 -0.168612 1.963602
-0.039794 -0.153366 1.786043
-0.029755 -0.152143 1.771811
-0.019934 -0.151397 1.763119
-0.010263 -0.151452 1.763758
-0.000586 -0.151649 1.766056
0.009095 -0.151498 1.764297
0.018836 -0.151983 1.769938
0.028823 -0.153449 1.787012
0.039568 -0.157179 1.830457
0.053745 -0.170272 1.982936
0.065517 -0.172623 2.010311
0.077531 -0.174839 2.036112
0.090527 -0.178435 2.077988
-0.127128 -0.168376 2.094703
-0.112968 -0.164493 2.046400
-0.100859 -0.163072 2.028713
-0.089128 -0.161981 2.015145
-0.077248 -0.160276 1.993932
-0.050067 -0.144936 1.803091
-0.039603 -0.142878 1.777486
-0.029729 -0.142297 1.770264
-0.019923 -0.141646 1.762163
-0.010260 -0.141728 1.763183
-0.000585 -0.141716 1.763035
0.009100 -0.141898 1.765301
0.018905 -0.142791 1.776415
0.029040 -0.144722 1.800427
0.040886 -0.152036 1.891425
0.053963 -0.160040 1.991001
0.065503 -0.161557 2.009869
0.077843 -0.164325 2.044305
0.091149 -0.168179 2.092248
-0.127557 -0.157411 2.101768
-0.113395 -0.153844 2.054136
-0.101254 -0.152534 2.036647
-0.089445 -0.151462 2.022332
-0.077171 -0.149185 1.991934
-0.062679 -0.141162 1.884806
-0.049668 -0.133964 1.788704
-0.039575 -0.133028 1.776205
-0.029664 -0.132295 1.766420
-0.019928 -0.132004 1.762532
-0.010254 -0.131976 1.762161
-0.000586 -0.132094 1.763728
0.009125 -0.132564 1.770000
0.018988 -0.133625 1.784175
0.029388 -0.136459 1.822013
0.042457 -0.147099 1.964084
0.053935 -0.149038 1.989969
0.065743 -0.151081 2.017244
0.078166 -0.153744 2.052797
-0.113632 -0.142871 2.058439
-0.101389 -0.141547 2.039357
-0.089472 -0.140407 2.022931
-0.077039 -0.138019 1.988523
-0.060906 -0.127120 1.831503
-0.049453 -0.123613 1.780978
-0.039469 -0.122952 1.771444
-0.029646 -0.122527 1.765324
-0.019916 -0.122265 1.761545
-0.010255 -0.122316 1.762279
-0.000587 -0.122735 1.768327
0.009165 -0.123391 1.777773
0.019165 -0.124993 1.800861
0.030521 -0.131336 1.892245
0.042714 -0.137149 1.975996
0.053946 -0.138147 1.990369
0.065524 -0.139544 2.010505
0.078259 -0.142650 2.055250
-0.113307 -0.131200 2.052548
-0.101241 -0.130167 2.036385
-0.089436 -0.129255 2.022118
-0.060009 -0.115347 1.804536
-0.049278 -0.113437 1.774660
-0.039368 -0.112943 1.766937
-0.029622 -0.112750 1.763908
-0.019916 -0.112598 1.761537
-0.010282 -0.112940 1.766889
-0.000589 -0.113431 1.774569
0.009211 -0.114216 1.786840
0.019505 -0.117153 1.832794
0.031541 -0.124997 1.955507
0.042642 -0.126092 1.972647
0.053805 -0.126893 1.985176
0.065317 -0.128107 2.004157
0.078055 -0.131030 2.049888
-0.113560 -0.120205 2.057137
-0.101274 -0.119032 2.037056
-0.089312 -0.117995 2.019315
-0.059612 -0.104747 1.792587
-0.049239 -0.103617 1.773246
-0.039455 -0.103476 1.770845
-0.029622 -0.103073 1.763939
-0.019941 -0.103062 1.763751
-0.010316 -0.103590 1.772788
-0.000592 -0.104125 1.781947
0.009311 -0.105545 1.806243
0.020280 -0.111351 1.905599
0.031664 -0.114711 1.963106
0.042577 -0.115094 1.969669
0.053645 -0.115655 1.979260
0.065039 -0.116611 1.995621
0.077396 -0.118770 2.032575
-0.126868 -0.110680 2.090424
-0.113405 -0.108769 2.054328
-0.101326 -0.107910 2.038100
-0.088729 -0.106217 2.006131
-0.070826 -0.096793 1.828146
-0.059398 -0.094570 1.786154
-0.049294 -0.093992 1.775244
-0.039497 -0.093860 1.772744
-0.029673 -0.093554 1.766967
-0.020011 -0.093710 1.769903
-0.010360 -0.094266 1.780403
-0.000596 -0.095086 1.795904
0.009579 -0.098381 1.858125
0.020728 -0.103126 1.947750
0.031593 -0.103708 1.958743
0.042558 -0.104239 1.968778
0.053653 -0.104810 1.979561
0.064914 -0.105458 1.991797
0.077338 -0.107537 2.031059
-0.125848 -0.098412 2.073621
-0.113397 -0.097489 2.054173
-0.101113 -0.096523 2.033816
-0.069708 -0.085393 1.799293
-0.059163 -0.084434 1.779099
-0.049254 -0.084182 1.773784
-0.039423 -0.083975 1.769415
-0.029728 -0.084014 1.770234
-0.020103 -0.084385 1.778049
-0.010428 -0.085046 1.791980
-0.000607 -0.086721 1.827269
0.009994 -0.092011 1.938732
0.020819 -0.092843 1.956268
0.031604 -0.092992 1.959407
0.042501 -0.093311 1.966124
0.053558 -0.093782 1.976057
0.064859 -0.094448 1.990093
0.076814 -0.095739 2.017289
-0.124830 -0.086329 2.056832
-0.113058 -0.085960 2.048041
-0.080893 -0.076766 1.828972
-0.069287 -0.075065 1.788444
-0.059202 -0.074721 1.780263
-0.049280 -0.074489 1.774725
-0.039477 -0.074367 1.771824
-0.029766 -0.074395 1.772492
-0.020160 -0.074842 1.783131
-0.010563 -0.076187 1.815186
-0.000636 -0.080405 1.915677
0.010060 -0.081906 1.951452
0.020816 -0.082096 1.955969
0.031624 -0.082292 1.960646
0.042521 -0.082562 1.967078
0.053501 -0.082850 1.973945
0.064752 -0.083392 1.986840
0.076568 -0.084398 2.010824
0.090010 -0.086719 2.066120
-0.112063 -0.074065 2.030018
-0.079419 -0.065514 1.795645
-0.069160 -0.065131 1.785142
-0.059113 -0.064855 1.777593
-0.049263 -0.064728 1.774108
-0.039609 -0.064862 1.777768
-0.029950 -0.065069 1.783442
-0.020388 -0.065791 1.803245
-0.010952 -0.068668 1.882099
-0.000646 -0.071019 1.946522
0.010056 -0.071171 1.950694
0.020810 -0.071344 1.955431
0.031640 -0.071570 1.961644
0.042524 -0.071773 1.967195
0.053494 -0.072009 1.973670
0.064739 -0.072474 1.986422
0.076529 -0.073328 2.009816
0.089547 -0.074994 2.055476
-0.089800 -0.055990 1.806253
-0.078973 -0.055349 1.785564
-0.069125 -0.055308 1.784263
-0.059091 -0.055081 1.776933
-0.049285 -0.055018 1.774902
-0.039696 -0.055227 1.781649
-0.030176 -0.055700 1.796898
-0.021014 -0.057612 1.858586
-0.011317 -0.060284 1.944781
-0.000648 -0.060487 1.951340
0.010073 -0.060567 1.953924
0.020822 -0.060649 1.956555
0.031612 -0.060753 1.959911
0.042490 -0.060931 1.965647
0.053548 -0.061242 1.975697
0.064717 -0.061554 1.985753
0.076526 -0.062297 2.009722
0.089399 -0.063611 2.052098
-0.112882 -0.047449 1.859973
-0.100464 -0.046427 1.819891
-0.088829 -0.045581 1.786730
-0.079052 -0.045596 1.787330
-0.069164 -0.045543 1.785249
-0.059128 -0.045359 1.778031
-0.049446 -0.045427 1.780700
-0.040007 -0.045808 1.795624
-0.030911 -0.046957 1.840698
-0.021898 -0.049410 1.936842
-0.011339 -0.049709 1.948571
-0.000648 -0.049817 1.952799
0.010080 -0.049884 1.955406
0.020840 -0.049955 1.958197
0.031642 -0.050047 1.961794
0.042528 -0.050190 1.967404
0.053587 -0.050438 1.977124
0.064779 -0.050706 1.987647
0.076248 -0.051083 2.002424
0.088969 -0.052099 2.042226
-0.110626 -0.036499 1.822793
-0.099059 -0.035931 1.794445
-0.088690 -0.035721 1.783926
-0.078804 -0.035676 1.781724
-0.068951 -0.035637 1.779770
-0.059213 -0.035654 1.780594
-0.049842 -0.035942 1.794979
-0.040588 -0.036477 1.821700
-0.032410 -0.038644 1.929906
-0.022086 -0.039115 1.953430
-0.011359 -0.039088 1.952090
-0.000649 -0.039127 1.954042
0.010090 -0.039191 1.957239
0.020862 -0.039253 1.960326
0.031680 -0.039328 1.964107
0.042555 -0.039419 1.968621
0.053589 -0.039591 1.977203
0.064852 -0.039845 1.989896
0.076147 -0.040042 1.999766
0.088370 -0.040617 2.028469
0.102046 -0.041656 2.080368
-0.109486 -0.026224 1.804018
-0.098847 -0.026029 1.790610
-0.088815 -0.025969 1.786454
-0.078763 -0.025886 1.780797
-0.068966 -0.025877 1.780136
-0.059509 -0.026013 1.789496
-0.050300 -0.026332 1.811457
-0.042217 -0.027543 1.894781
-0.032819 -0.028408 1.954280
-0.022112 -0.028430 1.955744
-0.011364 -0.028387 1.952829
-0.000649 -0.028399 1.953669
0.010086 -0.028441 1.956538
0.020858 -0.028491 1.959953
0.031691 -0.028561 1.964806
0.042575 -0.028630 1.969551
0.053591 -0.028742 1.977261
0.064767 -0.028888 1.987294
0.076230 -0.029101 2.001958
0.088018 -0.029369 2.020380
0.100566 -0.029802 2.050185
-0.108738 -0.016214 1.791681
-0.098608 -0.016165 1.786284
-0.088642 -0.016135 1.782976
-0.078763 -0.016115 1.780805
-0.069235 -0.016172 1.787090
-0.060023 -0.016334 1.804961
-0.051611 -0.016820 1.858683
-0.043459 -0.017651 1.950553
-0.032877 -0.017716 1.957747
-0.022087 -0.017678 1.953542
-0.011362 -0.017668 1.952461
-0.000648 -0.017652 1.950585
0.010080 -0.017695 1.955374
0.020836 -0.017717 1.957841
0.031711 -0.017792 1.966055
0.042662 -0.017860 1.973595
0.053680 -0.017923 1.980542
0.064854 -0.018008 1.989967
0.076317 -0.018137 2.004244
0.087919 -0.018263 2.018106
0.099779 -0.018408 2.034151
0.112988 -0.018747 2.071685
-0.119673 -0.006442 1.808362
-0.108507 -0.006369 1.787880
-0.098420 -0.006351 1.782864
-0.088654 -0.006352 1.783213
-0.078929 -0.006357 1.784550
-0.069771 -0.006415 1.800920
-0.061163 -0.006552 1.839224
-0.053970 -0.006924 1.943634
-0.043613 -0.006973 1.957477
-0.032871 -0.006973 1.957383
-0.022091 -0.006960 1.953885
-0.011370 -0.006960 1.953878
-0.000648 -0.006955 1.952287
0.010076 -0.006962 1.954499
0.020816 -0.006968 1.955955
0.031739 -0.007010 1.967760
0.042689 -0.007035 1.974842
0.053781 -0.007069 1.984290
0.064962 -0.007101 1.993280
0.076214 -0.007130 2.001544
0.087541 -0.007158 2.009442
0.099290 -0.007211 2.024187
0.112506 -0.007348 2.062855
-0.118690 0.003452 1.793513
-0.108203 0.003432 1.782869
-0.098399 0.003431 1.782497
-0.088732 0.003435 1.784784
-0.079434 0.003457 1.795970
-0.070705 0.003513 1.825021
-0.054584 0.003784 1.965740
-0.043642 0.003770 1.958738
-0.032865 0.003767 1.957049
-0.022101 0.003763 1.954738
-0.011371 0.003761 1.954043
-0.000648 0.003758 1.952199
0.010070 0.003760 1.953314
0.020825 0.003767 1.956846
0.031700 0.003783 1.965384
0.042704 0.003803 1.975524
0.053779 0.003819 1.984205
0.064860 0.003831 1.990153
0.075987 0.003841 1.995564
0.087462 0.003864 2.007618
0.099157 0.003891 2.021474
0.111325 0.003929 2.041203
0.124946 0.004007 2.081530
-0.118667 0.013291 1.793173
-0.108381 0.013236 1.785810
-0.098490 0.013224 1.784141
-0.088938 0.013259 1.788916
-0.080039 0.013413 1.809644
-0.072490 0.013869 1.871102
-0.065768 0.014659 1.977699
-0.054771 0.014620 1.972501
-0.043728 0.014547 1.962627
-0.032858 0.014502 1.956600
-0.022105 0.014491 1.955089
-0.011349 0.014456 1.950306
-0.000647 0.014449 1.949427
0.010076 0.014488 1.954645
0.020828 0.014506 1.957138
0.031625 0.014533 1.960729
0.042586 0.014602 1.970078
0.053724 0.014692 1.982183
0.064795 0.014736 1.988141
0.076017 0.014797 1.996354
0.087300 0.014853 2.003911
0.098800 0.014929 2.014187
0.110777 0.015055 2.031152
0.124097 0.015323 2.067378
-0.129249 0.023264 1.803534
-0.118721 0.023141 1.793987
-0.108403 0.023040 1.786173
-0.098609 0.023042 1.786304
-0.089189 0.023141 1.793967
-0.080708 0.023538 1.824775
-0.075081 0.024998 1.937999
-0.065823 0.025532 1.979353
-0.054778 0.025447 1.972752
-0.043743 0.025325 1.963309
-0.032832 0.025219 1.955060
-0.022067 0.025176 1.951757
-0.011331 0.025117 1.947229
-0.000647 0.025136 1.948658
0.010067 0.025189 1.952756
0.020848 0.025269 1.958972
0.031669 0.025326 1.963431
0.042568 0.025402 1.969262
0.053668 0.025542 1.980107
0.064731 0.025620 1.986193
0.075861 0.025698 1.992259
0.087292 0.025846 2.003731
0.098861 0.025997 2.015423
0.110704 0.026183 2.029805
0.123715 0.026585 2.061023
-0.128840 0.033055 1.797821
-0.118494 0.032921 1.790546
-0.108364 0.032829 1.785528
-0.098593 0.032838 1.786004
-0.089291 0.033022 1.796027
-0.080951 0.033652 1.830275
-0.076083 0.036108 1.963850
-0.065798 0.036379 1.978599
-0.054693 0.036215 1.969676
-0.043702 0.036064 1.961471
-0.032814 0.035927 1.954012
-0.022082 0.035909 1.953061
-0.011349 0.035859 1.950333
-0.000647 0.035825 1.948473
0.010061 0.035882 1.951572
0.020850 0.036021 1.959133
0.031713 0.036150 1.966141
0.042655 0.036281 1.973261
0.053651 0.036395 1.979493
0.064693 0.036497 1.985000
0.075793 0.036597 1.990467
0.087180 0.036793 2.001146
0.098877 0.037062 2.015763
0.110529 0.037261 2.026597
0.123031 0.037685 2.049627
-0.139271 0.043095 1.805160
-0.128575 0.042832 1.794128
-0.118396 0.042711 1.789068
-0.108276 0.042592 1.784072
-0.098529 0.042610 1.784844
-0.089115 0.042792 1.792476
-0.080681 0.043549 1.824172
-0.076029 0.046850 1.962451
-0.065779 0.047222 1.978038
-0.054619 0.046959 1.967010
-0.043604 0.046721 1.957034
-0.032782 0.046603 1.952098
-0.022069 0.046598 1.951906
-0.011342 0.046530 1.949024
-0.000647 0.046502 1.947874
0.010060 0.046589 1.951517
0.020841 0.046751 1.958315
0.031653 0.046851 1.962475
0.042613 0.047062 1.971306
0.053545 0.047164 1.975576
0.064674 0.047375 1.984443
0.075889 0.047579 1.992990
0.087068 0.047713 1.998580
0.098512 0.047945 2.008311
0.110315 0.048288 2.022669
0.123310 0.049042 2.054262
0.138458 0.050455 2.113431
-0.149199 0.053009 1.805444
-0.138735 0.052796 1.798211
-0.128282 0.052556 1.790037
-0.118136 0.052412 1.785137
-0.108213 0.052351 1.783044
-0.098391 0.052330 1.782342
-0.088971 0.052543 1.789592
-0.080601 0.053505 1.822357
-0.076106 0.057677 1.964443
-0.065795 0.058090 1.978527
-0.054595 0.057727 1.966137
-0.043553 0.057393 1.954758
-0.032717 0.057200 1.948192
-0.022029 0.057207 1.948422
-0.011328 0.057154 1.946635
-0.000646 0.057176 1.947393
0.010057 0.057278 1.950846
0.020792 0.057363 1.953739
0.031635 0.057585 1.961319
0.042574 0.057826 1.969538
0.053497 0.057951 1.973780
0.064485 0.058094 1.978640
0.075837 0.058475 1.991643
0.087170 0.058748 2.000924
0.098351 0.058868 2.005025
0.110222 0.059337 2.020972
0.123337 0.060327 2.054713
0.137926 0.061813 2.105309
-0.148442 0.062596 1.796275
-0.138486 0.062551 1.794993
-0.127966 0.062225 1.785634
-0.117916 0.062092 1.781823
-0.108143 0.062094 1.781878
-0.098567 0.062221 1.785526
-0.089117 0.062465 1.792519
-0.080804 0.063665 1.826958
-0.076226 0.068564 1.967544
-0.065436 0.068571 1.967739
-0.054436 0.068315 1.960402
-0.043540 0.068098 1.954172
-0.032723 0.067903 1.948581
-0.022007 0.067829 1.946443
-0.011316 0.067764 1.944588
-0.000646 0.067771 1.944794
0.010028 0.067784 1.945152
0.020743 0.067921 1.949081
0.031532 0.068124 1.954918
0.042458 0.068445 1.964133
0.053399 0.068656 1.970184
0.064432 0.068894 1.977020
0.075611 0.069197 1.985698
0.086948 0.069550 1.995826
0.098494 0.069972 2.007942
0.110314 0.070485 2.022662
0.123312 0.071587 2.054298
0.138674 0.073763 2.116736
-0.148395 0.072429 1.795706
-0.138083 0.072190 1.789770
-0.127868 0.071968 1.784261
-0.118060 0.071957 1.783992
-0.108031 0.071797 1.780041
-0.098595 0.072040 1.786046
-0.089424 0.072550 1.798704
-0.082004 0.074784 1.854081
-0.076602 0.079752 1.977247
-0.065395 0.079318 1.966490
-0.054391 0.079007 1.958788
-0.043487 0.078725 1.951785
-0.032711 0.078567 1.947874
-0.021983 0.078425 1.944354
-0.011286 0.078232 1.939561
-0.000645 0.078310 1.941512
0.010014 0.078352 1.942547
0.020713 0.078502 1.946271
0.031486 0.078736 1.952067
0.042360 0.079041 1.959621
0.053270 0.079275 1.965421
0.064313 0.079595 1.973364
0.075446 0.079917 1.981354
0.086903 0.080460 1.994798
0.098503 0.080997 2.008133
0.110433 0.081671 2.024837
0.123350 0.082885 2.054939
-0.158739 0.082538 1.801278
-0.148196 0.082172 1.793300
-0.137788 0.081835 1.785944
-0.127773 0.081697 1.782931
-0.117877 0.081619 1.781224
-0.108127 0.081637 1.781629
-0.098708 0.081933 1.788080
-0.089738 0.082709 1.805019
-0.084665 0.087714 1.914239
-0.076805 0.090841 1.982495
-0.065312 0.089994 1.964003
-0.054312 0.089626 1.955971
-0.043498 0.089458 1.952314
-0.032692 0.089203 1.946742
-0.021972 0.089049 1.943386
-0.011286 0.088867 1.939416
-0.000644 0.088846 1.938944
0.010008 0.088955 1.941317
0.020695 0.089107 1.944636
0.031416 0.089251 1.947776
0.042252 0.089564 1.954607
0.053127 0.089817 1.960145
0.064170 0.090222 1.968968
0.075358 0.090684 1.979065
0.086912 0.091415 1.995011
0.098650 0.092154 2.011139
0.110967 0.093231 2.034636
0.123717 0.094441 2.061042
-0.159457 0.092839 1.809420
-0.148455 0.092173 1.796433
-0.138079 0.091828 1.789713
-0.128012 0.091652 1.786271
-0.117974 0.091468 1.782694
-0.108287 0.091548 1.784252
-0.098985 0.092002 1.793109
-0.090364 0.093259 1.817606
-0.088200 0.102318 1.994163
-0.076990 0.101964 1.987256
-0.065295 0.100745 1.963494
-0.054223 0.100194 1.952764
-0.043416 0.099981 1.948618
-0.032665 0.099801 1.945103
-0.021957 0.099642 1.942011
-0.011279 0.099452 1.938298
-0.000643 0.099422 1.937717
0.010001 0.099536 1.939945
0.020692 0.099761 1.944321
0.031368 0.099784 1.944773
0.042194 0.100151 1.951932
0.053057 0.100441 1.957576
0.064146 0.100988 1.968238
0.075427 0.101636 1.980865
0.087026 0.102495 1.997606
0.098926 0.103477 2.016756
0.111269 0.104679 2.040165
0.124263 0.106217 2.070140
-0.159299 0.102667 1.807638
-0.148962 0.102379 1.802566
-0.138649 0.102068 1.797099
-0.128627 0.101940 1.794848
-0.118673 0.101850 1.793253
-0.108905 0.101917 1.794433
-0.099159 0.102020 1.796262
-0.090732 0.103653 1.825013
-0.089539 0.114980 2.024436
-0.076891 0.112723 1.984708
-0.065325 0.111570 1.964393
-0.054223 0.110908 1.952748
-0.043412 0.110662 1.948418
-0.032630 0.110358 1.943058
-0.021943 0.110227 1.940755
-0.011278 0.110075 1.938081
-0.000644 0.110145 1.939316
0.010001 0.110186 1.940027
0.020656 0.110240 1.940983
0.031287 0.110170 1.939750
0.042123 0.110675 1.948637
0.052989 0.111038 1.955039
0.064109 0.111722 1.967081
0.075559 0.112702 1.984324
0.087102 0.113555 1.999350
0.099244 0.114912 2.023237
0.111652 0.116272 2.047183
0.125356 0.118610 2.088353
-0.158957 0.112343 1.803751
-0.149142 0.112406 1.804753
-0.138942 0.112166 1.800900
-0.128941 0.112062 1.799232
-0.118998 0.111996 1.798171
-0.109698 0.112577 1.807510
-0.099488 0.112248 1.802223
-0.091280 0.114354 1.836030
-0.089760 0.126400 2.029449
-0.076634 0.123201 1.978076
-0.065170 0.122059 1.959737
-0.054198 0.121568 1.951859
-0.043347 0.121172 1.945508
-0.032583 0.120843 1.940221
-0.021937 0.120845 1.940255
-0.011288 0.120817 1.939802
-0.000644 0.120847 1.940293
0.010003 0.120854 1.940392
0.020647 0.120835 1.940094
0.031264 0.120724 1.938306
0.042049 0.121154 1.945214
0.052945 0.121665 1.953418
0.064106 0.122510 1.966988
0.075586 0.123635 1.985048
0.087616 0.125262 2.011164
0.100153 0.127168 2.041775
0.113628 0.129761 2.083413
-0.158970 0.122251 1.803902
-0.149473 0.122580 1.808758
-0.139168 0.122245 1.803821
-0.129834 0.122779 1.811695
-0.119503 0.122379 1.805794
-0.110363 0.123238 1.818468
-0.100145 0.122943 1.814116
-0.091958 0.125352 1.849661
-0.089757 0.137532 2.029382
-0.076440 0.133714 1.973053
-0.065194 0.132859 1.960437
-0.054140 0.132136 1.949769
-0.043370 0.131918 1.946553
-0.032630 0.131680 1.943036
-0.021950 0.131571 1.941434
-0.011293 0.131524 1.940733
-0.000644 0.131383 1.938655
0.009987 0.131290 1.937288
0.020636 0.131413 1.939101
0.031314 0.131570 1.941413
0.042071 0.131896 1.946231
0.052995 0.132509 1.955276
0.064231 0.133565 1.970846
0.075793 0.134895 1.990472
0.087972 0.136851 2.019340
0.101192 0.139807 2.062959
0.111460 0.138500 2.043666
-0.158973 0.132151 1.803928
-0.149941 0.132919 1.814416
-0.139589 0.132544 1.809288
-0.130974 0.133885 1.827596
-0.120316 0.133189 1.818092
-0.111327 0.134379 1.834344
-0.089183 0.147716 2.016402
-0.076321 0.144316 1.969985
-0.065082 0.143371 1.957093
-0.054147 0.142852 1.950000
-0.043308 0.142396 1.943775
-0.032617 0.142287 1.942286
-0.021945 0.142188 1.940933
-0.011285 0.142070 1.939324
-0.000642 0.141746 1.934905
0.009981 0.141841 1.936200
0.020608 0.141860 1.936465
0.031327 0.142283 1.942233
0.042078 0.142602 1.946592
0.052961 0.143148 1.954040
0.064166 0.144232 1.968840
0.075803 0.145835 1.990728
0.088225 0.148357 2.025148
0.101515 0.151609 2.069535
-0.076151 0.154781 1.965612
-0.064978 0.153864 1.953967
-0.054006 0.153152 1.944931
-0.043252 0.152863 1.941261
-0.032618 0.152949 1.942348
-0.021925 0.152701 1.939201
-0.011275 0.152579 1.937642
-0.000643 0.152560 1.937413
0.009977 0.152406 1.935445
0.020574 0.152229 1.933203
0.031264 0.152634 1.938352
0.042028 0.153101 1.944278
0.052963 0.153875 1.954109
0.064189 0.155092 1.969564
0.076050 0.157270 1.997219
0.088798 0.160504 2.038287
0.101666 0.163206 2.072610
-0.076176 0.165620 1.966252
-0.064933 0.164470 1.952590
-0.054033 0.163908 1.945919
-0.043210 0.163354 1.939350
-0.032587 0.163450 1.940489
-0.021931 0.163383 1.939693
-0.011280 0.163282 1.938491
-0.000643 0.163051 1.935745
0.009982 0.163098 1.936311
0.020610 0.163127 1.936655
0.031253 0.163210 1.937636
0.042057 0.163879 1.945580
0.053082 0.164968 1.958504
0.064280 0.166134 1.972354
0.076140 0.168429 1.999600
0.089162 0.172392 2.046647
-0.076152 0.176354 1.965630
-0.064996 0.175353 1.954482
-0.054106 0.174819 1.948529
-0.043237 0.174105 1.940569
-0.032498 0.173620 1.935166
-0.021881 0.173633 1.935300
-0.011268 0.173736 1.936452
-0.000642 0.173533 1.934195
0.009982 0.173719 1.936261
0.020637 0.173980 1.939168
0.031324 0.174240 1.942075
0.042074 0.174626 1.946375
0.053038 0.175569 1.956881
0.064446 0.177413 1.977439
0.076238 0.179632 2.002175
0.089187 0.183674 2.047222
0.101694 0.186003 2.073178
-0.076053 0.186897 1.963087
-0.064867 0.185710 1.950619
-0.054047 0.185308 1.946397
-0.043259 0.184848 1.941566
-0.032508 0.184295 1.935759
-0.021907 0.184470 1.937590
-0.011268 0.184355 1.936390
-0.000643 0.184389 1.936739
0.009982 0.184357 1.936407
0.020650 0.184737 1.940399
0.031352 0.185062 1.943813
0.042157 0.185673 1.950231
0.053113 0.186567 1.959618
0.064526 0.188498 1.979903
0.076503 0.191280 2.009122
0.089779 0.196201 2.060807
0.097973 0.190158 1.997337
-0.076182 0.198002 1.966398
-0.064964 0.196706 1.953526
-0.053969 0.195708 1.943614
-0.043246 0.195445 1.941001
-0.032511 0.194935 1.935933
-0.021870 0.194775 1.934346
-0.011254 0.194743 1.934033
-0.000643 0.194975 1.936333
0.009983 0.194996 1.936545
0.020674 0.195610 1.942636
0.031356 0.195747 1.944005
0.042203 0.196587 1.952342
0.053117 0.197336 1.959777
0.064588 0.199554 1.981808
0.076473 0.202225 2.008331
0.089600 0.207096 2.056711
0.101113 0.207563 2.061349
-0.076025 0.208363 1.962353
-0.064951 0.207385 1.953144
-0.053946 0.206283 1.942768
-0.043131 0.205547 1.935836
-0.032515 0.205586 1.936199
-0.021864 0.205335 1.933835
-0.011251 0.205289 1.933403
-0.000641 0.205150 1.932100
0.009984 0.205632 1.936636
0.020679 0.206317 1.943092
0.031361 0.206447 1.944313
0.042229 0.207427 1.953538
0.053185 0.208357 1.962303
0.064649 0.210624 1.983655
0.076541 0.213435 2.010122
0.089581 0.218335 2.056269
0.101029 0.218691 2.059627
-0.076191 0.219609 1.966635
-0.064996 0.218254 1.954504
-0.053952 0.216966 1.942971
-0.043079 0.215909 1.933504
-0.032467 0.215888 1.933321
-0.021870 0.216002 1.934337
-0.011236 0.215612 1.930847
-0.000642 0.215820 1.932711
0.009989 0.216375 1.937682
0.020654 0.216720 1.940769
0.031369 0.217176 1.944855
0.042279 0.218408 1.955883
0.053330 0.219721 1.967644
0.064781 0.221961 1.987707
0.076702 0.224938 2.014360
0.090049 0.230817 2.067014
0.099227 0.225891 2.022899
-0.075946 0.229660 1.960320
-0.064987 0.228944 1.954212
-0.054033 0.227973 1.945922
-0.043146 0.226868 1.936492
-0.032475 0.226550 1.933780
-0.021872 0.226637 1.934519
-0.011228 0.226048 1.929489
-0.000642 0.226529 1.933600
0.010010 0.227481 1.941724
0.020665 0.227487 1.941777
0.031454 0.228463 1.950101
0.042352 0.229536 1.959265
0.053543 0.231439 1.975508
0.064968 0.233541 1.993450
0.076973 0.236824 2.021476
0.089751 0.241357 2.060162
-0.076297 0.241526 1.969368
-0.065117 0.240146 1.958118
-0.053960 0.238327 1.943283
-0.043167 0.237608 1.937425
-0.032476 0.237175 1.933893
-0.021860 0.237121 1.933449
-0.011242 0.236931 1.931902
-0.000642 0.237265 1.934628
0.010005 0.238026 1.940832
0.020672 0.238222 1.942427
0.031529 0.239737 1.954781
0.042531 0.241297 1.967506
0.053710 0.243032 1.981652
0.065077 0.244889 1.996792
0.076769 0.247257 2.016100
0.089680 0.252461 2.058529
-0.076459 0.252869 1.973558
-0.065235 0.251346 1.961672
-0.053980 0.249080 1.943988
-0.043138 0.248075 1.936146
-0.032507 0.248016 1.935682
-0.021856 0.247691 1.933143
-0.011265 0.248048 1.935933
-0.000644 0.248378 1.938505
0.010020 0.249035 1.943637
0.020719 0.249449 1.946865
0.031509 0.250302 1.953521
0.042554 0.252235 1.968608
0.053796 0.254312 1.984825
0.065061 0.255782 1.996296
0.076752 0.258264 2.015668
0.089856 0.264274 2.062568
-0.077038 0.265694 1.988494
-0.065286 0.262317 1.963221
-0.054117 0.260410 1.948949
-0.043248 0.259355 1.941057
-0.032546 0.258950 1.938025
-0.021896 0.258765 1.936637
-0.011267 0.258699 1.936142
-0.000644 0.259076 1.938965
0.010026 0.259869 1.944902
0.020758 0.260620 1.950524
0.031537 0.261256 1.955281
0.042583 0.263213 1.969926
0.053793 0.265191 1.984731
0.064998 0.266480 1.994381
0.076910 0.269878 2.019809
0.089836 0.275530 2.062114
-0.077339 0.277687 1.996272
-0.065390 0.273524 1.966347
-0.054324 0.272140 1.956398
-0.043324 0.270482 1.944480
-0.032529 0.269441 1.936997
-0.021866 0.269024 1.933996
-0.011261 0.269179 1.935114
-0.000643 0.269382 1.936571
0.010013 0.270191 1.942383
0.020763 0.271389 1.950996
0.031602 0.272539 1.959267
0.042679 0.274638 1.974356
0.053843 0.276338 1.986575
0.065157 0.278100 1.999241
0.077086 0.281606 2.024446
0.089888 0.287013 2.063316
-0.077781 0.290291 2.007689
