ply
format ascii 1.0
element vertex 1283
property float x
property float y
property float z
property uchar red
property uchar green
property uchar blue
end_header
0.007186 0.063871 1.393907 81 81 111
0.015678 0.067502 1.473153 78 81 112
0.023971 0.068098 1.486148 106 110 145
0.032223 0.068305 1.490663 130 129 168
0.040526 0.068515 1.495240 155 154 193
0.048933 0.068799 1.501453 157 161 196
0.057682 0.069413 1.514851 167 169 204
0.067137 0.070615 1.541080 174 172 201
-0.157490 0.081540 1.589206 81 82 110
-0.146558 0.080328 1.565574 74 81 108
-0.137112 0.079830 1.555871 74 82 111
-0.128110 0.079541 1.550244 66 74 103
-0.119138 0.079232 1.544211 71 78 105
-0.110013 0.078765 1.535116 69 76 103
-0.100899 0.078229 1.524675 62 79 105
-0.091387 0.077261 1.505796 0 0 0
-0.077865 0.072372 1.410514 0 0 0
-0.068472 0.070665 1.377256 48 59 87
-0.060560 0.070255 1.369249 47 56 83
-0.052714 0.069813 1.360642 54 63 90
-0.045118 0.069613 1.356750 49 57 86
-0.037680 0.069624 1.356965 40 51 79
-0.030262 0.069688 1.358211 49 60 88
-0.022863 0.069853 1.361412 42 50 80
-0.015434 0.070043 1.365118 51 53 88
-0.007968 0.070257 1.369287 53 56 87
-0.000457 0.070680 1.377532 68 68 98
0.007289 0.072545 1.413897 76 74 104
0.015739 0.075881 1.478906 74 80 109
0.023880 0.075963 1.480505 101 106 139
0.032108 0.076210 1.485327 125 123 159
0.040463 0.076599 1.492900 139 134 173
0.048841 0.076892 1.498606 148 150 185
0.057383 0.077322 1.507000 158 165 198
0.066544 0.078373 1.527471 167 169 199
-0.158352 0.090754 1.597898 64 78 106
-0.146339 0.088786 1.563236 73 84 112
-0.137169 0.088404 1.556518 68 77 104
-0.128243 0.088139 1.551852 70 81 109
-0.119237 0.087778 1.545496 70 79 106
-0.110200 0.087337 1.537726 65 77 101
-0.100849 0.086552 1.523916 68 79 101
-0.090378 0.084579 1.489173 0 0 0
-0.076854 0.079071 1.392198 0 0 0
-0.068217 0.077932 1.372132 44 57 83
-0.060481 0.077666 1.367448 42 53 80
-0.052704 0.077265 1.360393 45 56 84
-0.045145 0.077104 1.357555 47 55 84
-0.037650 0.077010 1.355909 49 57 86
-0.030260 0.077138 1.358154 38 49 77
-0.022895 0.077431 1.363324 45 49 78
-0.015449 0.077606 1.366397 48 51 82
-0.007985 0.077935 1.372200 60 62 92
-0.000460 0.078681 1.385325 73 74 100
0.007441 0.081984 1.443490 71 71 101
0.015720 0.083893 1.477100 68 71 102
0.023841 0.083951 1.478120 81 86 117
0.032066 0.084252 1.483417 98 97 131
0.040378 0.084613 1.489764 118 114 150
0.048814 0.085068 1.497787 132 126 161
0.057278 0.085434 1.504233 146 142 177
0.066314 0.086455 1.522197 158 158 188
-0.159075 0.099977 1.605197 0 0 0
-0.147080 0.097856 1.571146 67 78 100
-0.137587 0.097240 1.561257 66 76 100
-0.128249 0.096659 1.551926 71 82 110
-0.119048 0.096105 1.543038 63 74 102
-0.110241 0.095810 1.538296 70 80 104
-0.100982 0.095039 1.525928 67 78 98
-0.089399 0.091746 1.473044 0 0 0
-0.076452 0.086257 1.384917 61 75 94
-0.068296 0.085560 1.373728 48 62 84
-0.060457 0.085135 1.366906 40 54 77
-0.052702 0.084727 1.360350 45 56 83
-0.045188 0.084634 1.358860 36 48 72
-0.037708 0.084579 1.357982 50 58 87
-0.030313 0.084736 1.360502 48 54 83
-0.022888 0.084886 1.362910 51 55 84
-0.015450 0.085108 1.366469 51 53 83
-0.008014 0.085780 1.377262 65 66 92
-0.000466 0.087475 1.404467 76 77 103
0.007559 0.091327 1.466316 53 55 85
0.015742 0.092129 1.479191 61 63 97
0.023871 0.092178 1.479982 72 75 106
0.032072 0.092407 1.483668 86 85 117
0.040388 0.092810 1.490138 111 106 138
0.048768 0.093199 1.496382 129 125 160
0.057228 0.093607 1.502922 151 147 182
0.066009 0.094371 1.515189 159 158 190
0.076847 0.097576 1.566648 118 119 133
-0.160842 0.109993 1.623024 0 0 0
-0.147445 0.106741 1.575048 71 75 103
-0.137634 0.105843 1.561786 62 70 99
-0.128626 0.105483 1.556484 67 75 104
-0.119052 0.104576 1.543099 67 75 104
-0.110252 0.104261 1.538450 71 79 108
-0.100809 0.103235 1.523310 0 0 0
-0.087014 0.097165 1.433746 0 0 0
-0.076002 0.093305 1.376778 55 65 89
-0.068041 0.092749 1.368587 58 68 92
-0.060352 0.092476 1.364546 47 55 84
-0.052806 0.092373 1.363030 52 62 92
-0.045266 0.092247 1.361180 43 50 77
-0.037728 0.092080 1.358715 43 50 77
-0.030340 0.092286 1.361754 45 49 77
-0.022927 0.092525 1.365273 47 51 76
-0.015477 0.092768 1.368866 52 56 81
-0.008057 0.093837 1.384630 64 65 93
-0.000476 0.097143 1.433418 83 85 116
0.007596 0.099861 1.473518 55 57 91
0.015695 0.099943 1.474737 60 65 96
0.023839 0.100163 1.477982 72 76 105
0.032108 0.100662 1.485348 82 82 112
0.040315 0.100804 1.487438 106 103 135
0.048666 0.101198 1.493248 116 115 147
0.057112 0.101648 1.499885 133 134 168
0.065894 0.102506 1.512548 148 151 182
0.075739 0.104641 1.544059 166 169 190
-0.147653 0.115547 1.577270 63 68 101
-0.138089 0.114791 1.566950 61 69 98
-0.128751 0.114135 1.558005 63 74 102
-0.119374 0.113348 1.547262 61 73 101
-0.110091 0.112538 1.536201 68 79 107
-0.100490 0.111241 1.518494 0 0 0
-0.085201 0.102844 1.403868 45 53 82
-0.075874 0.100689 1.374454 51 59 88
-0.068019 0.100227 1.368150 49 57 86
-0.060355 0.099967 1.364600 60 64 92
-0.052742 0.099730 1.361364 49 53 82
-0.045254 0.099691 1.360830 44 48 77
-0.037779 0.099669 1.360534 41 47 76
-0.030385 0.099906 1.363771 43 45 75
-0.023015 0.100397 1.370473 51 54 82
-0.015558 0.100809 1.376090 55 56 82
-0.008147 0.102559 1.399979 76 74 103
-0.000484 0.106772 1.457488 50 54 83
0.007598 0.107969 1.473838 54 62 92
0.015693 0.108022 1.474559 61 69 99
0.023825 0.108208 1.477100 65 71 100
0.032060 0.108651 1.483140 81 83 114
0.040336 0.109024 1.488228 91 88 120
0.048553 0.109136 1.489766 109 104 135
0.057144 0.109938 1.500708 129 129 159
0.065887 0.110794 1.512395 141 144 175
0.075375 0.112570 1.536640 160 162 186
-0.148899 0.125250 1.590586 58 71 93
-0.138638 0.123880 1.573188 50 69 96
-0.129003 0.122924 1.561044 49 66 92
-0.119506 0.121974 1.548983 61 74 100
-0.109973 0.120838 1.534554 56 68 92
-0.098849 0.117621 1.493702 0 0 0
-0.084499 0.109636 1.392296 58 68 92
-0.075886 0.108248 1.374673 48 59 87
-0.068120 0.107895 1.370186 49 58 85
-0.060431 0.107591 1.366326 46 53 78
-0.052767 0.107252 1.362031 49 56 83
-0.045293 0.107251 1.362016 41 47 76
-0.037812 0.107229 1.361738 36 42 71
-0.030445 0.107600 1.366444 44 48 77
-0.023041 0.108038 1.372014 54 54 84
-0.015695 0.109309 1.388152 78 77 103
-0.008304 0.112366 1.426967 75 73 102
-0.000488 0.115698 1.469290 53 56 87
0.007595 0.116008 1.473217 55 63 93
0.015712 0.116253 1.476334 61 69 99
0.023856 0.116465 1.479023 66 74 104
0.031994 0.116546 1.480059 74 79 110
0.040314 0.117126 1.487416 85 85 115
0.048578 0.117371 1.490537 109 104 135
0.057052 0.117984 1.498311 124 119 150
0.065735 0.118818 1.508907 134 134 164
0.075114 0.120583 1.531320 157 158 186
-0.151146 0.135999 1.614587 0 0 0
-0.138930 0.132791 1.576497 54 65 93
-0.129164 0.131654 1.563003 61 73 101
-0.119829 0.130825 1.553165 60 70 94
-0.109900 0.129172 1.533539 0 0 0
-0.094916 0.120811 1.434275 0 0 0
-0.083766 0.116258 1.380225 53 62 89
-0.075901 0.115813 1.374937 45 56 83
-0.068085 0.115353 1.369470 53 60 85
-0.060322 0.114880 1.363854 48 53 78
-0.052730 0.114644 1.361054 48 55 80
-0.045303 0.114749 1.362303 42 50 79
-0.037871 0.114881 1.363873 44 50 79
-0.030532 0.115427 1.370357 49 52 80
-0.023145 0.116093 1.378255 54 55 83
-0.015851 0.118090 1.401966 73 74 102
-0.008501 0.123057 1.460937 48 52 81
-0.000489 0.124034 1.472536 50 55 86
0.007602 0.124210 1.474625 59 67 97
0.015717 0.124401 1.476890 62 70 100
0.023851 0.124556 1.478735 66 70 105
0.032019 0.124768 1.481245 71 73 107
0.040296 0.125232 1.486758 76 75 107
0.048599 0.125605 1.491184 97 92 124
0.056993 0.126074 1.496755 110 105 137
0.065702 0.127033 1.508139 137 135 165
0.074828 0.128495 1.525492 150 146 181
0.086024 0.132857 1.577282 134 134 146
-0.139536 0.142058 1.583368 52 65 91
-0.129571 0.140672 1.567922 52 63 91
-0.119966 0.139507 1.554941 55 63 86
-0.108473 0.135800 1.513619 0 0 0
-0.092436 0.125319 1.396796 55 63 86
-0.083588 0.123568 1.377282 60 65 90
-0.075815 0.123219 1.373389 55 58 86
-0.068016 0.122744 1.368095 48 52 77
-0.060239 0.122196 1.361991 44 49 74
-0.052735 0.122123 1.361180 40 43 71
-0.045317 0.122262 1.362731 35 39 68
-0.037969 0.122681 1.367398 44 53 80
-0.030625 0.123320 1.374522 44 48 72
-0.023328 0.124631 1.389130 64 64 88
-0.016286 0.129234 1.440431 49 51 81
-0.008563 0.132026 1.471552 44 52 82
-0.000489 0.132251 1.474065 51 59 89
0.007604 0.132330 1.474945 50 61 91
0.015711 0.132454 1.476323 56 64 93
0.023840 0.132607 1.478034 66 72 101
0.032057 0.133051 1.482975 69 71 105
0.040323 0.133478 1.487741 77 80 111
0.048641 0.133903 1.492476 87 89 120
0.057045 0.134410 1.498130 109 106 138
0.065798 0.135505 1.510337 124 119 150
0.074585 0.136421 1.520539 147 142 173
0.084761 0.139434 1.554124 171 169 188
-0.141108 0.152445 1.601211 54 63 83
-0.129624 0.149336 1.568563 48 59 87
-0.119212 0.147109 1.545166 0 0 0
-0.103769 0.137856 1.447984 0 0 0
-0.091594 0.131772 1.384072 65 69 97
-0.083476 0.130951 1.375450 56 61 86
-0.075750 0.130642 1.372206 58 61 89
-0.067979 0.130180 1.367353 46 50 79
-0.060279 0.129755 1.362887 44 50 79
-0.052797 0.129746 1.362793 43 49 78
-0.045377 0.129910 1.364520 47 47 77
-0.038067 0.130520 1.370927 47 50 78
-0.030800 0.131611 1.382384 57 58 79
-0.023787 0.134852 1.416429 75 72 98
-0.016576 0.139585 1.466142 48 50 81
-0.008564 0.140110 1.471653 48 55 88
-0.000489 0.140189 1.472488 48 53 86
0.007600 0.140355 1.474224 53 54 88
0.015726 0.140687 1.477714 59 62 93
0.023844 0.140742 1.478298 62 65 96
0.032022 0.141037 1.481390 71 74 105
0.040340 0.141700 1.488359 77 79 109
0.048647 0.142112 1.492678 92 90 120
0.057173 0.142951 1.501491 101 99 129
0.065747 0.143682 1.509177 127 122 153
0.074488 0.144574 1.518541 139 133 164
0.084367 0.147274 1.546902 170 162 192
0.095170 0.150947 1.585481 142 138 150
-0.130521 0.159036 1.579416 0 0 0
-0.100370 0.141026 1.400557 0 0 0
-0.091253 0.138846 1.378909 56 60 89
-0.083236 0.138099 1.371487 56 62 91
-0.075565 0.137834 1.368858 48 54 83
-0.067932 0.137586 1.366394 45 51 80
-0.060270 0.137213 1.362685 42 48 77
-0.052809 0.137253 1.363090 43 45 75
-0.045476 0.137698 1.367503 45 43 73
-0.038137 0.138296 1.373444 50 50 80
-0.031132 0.140696 1.397275 64 68 93
-0.024438 0.146528 1.455194 46 48 78
-0.016640 0.148200 1.471802 47 52 85
-0.008573 0.148338 1.473172 47 52 83
-0.000489 0.148444 1.474221 56 58 88
0.007600 0.148445 1.474235 57 60 91
0.015717 0.148710 1.476866 59 64 97
0.023865 0.148983 1.479580 69 70 104
0.032040 0.149248 1.482209 75 74 106
0.040318 0.149784 1.487536 89 87 116
0.048636 0.150268 1.492338 97 94 120
0.057107 0.151013 1.499737 108 106 135
0.065602 0.151628 1.505849 118 113 144
0.074280 0.152481 1.514317 142 138 167
0.083539 0.154234 1.531725 169 165 194
0.093656 0.157106 1.560246 188 182 205
0.104475 0.160576 1.594712 55 52 61
-0.109875 0.151216 1.424143 52 60 89
-0.099051 0.146756 1.382144 53 59 88
-0.091162 0.146267 1.377538 46 51 82
-0.083103 0.145393 1.369304 45 47 81
-0.075421 0.145067 1.366238 48 50 81
-0.067879 0.144971 1.365329 45 49 78
-0.060297 0.144754 1.363291 45 48 76
-0.053006 0.145274 1.368190 49 50 76
-0.045724 0.145994 1.374972 46 47 73
-0.038468 0.147099 1.385374 54 58 83
-0.032051 0.152745 1.438549 45 49 78
-0.024690 0.156106 1.470200 41 43 78
-0.016638 0.156257 1.471624 47 49 83
-0.008559 0.156167 1.470776 50 55 86
-0.000488 0.156164 1.470744 50 55 86
0.007598 0.156497 1.473886 58 63 94
0.015711 0.156752 1.476290 62 67 98
0.023870 0.157138 1.479919 76 76 106
0.032038 0.157372 1.482125 88 83 114
0.040310 0.157917 1.487258 91 87 116
0.048681 0.158601 1.493696 95 92 118
0.057108 0.159247 1.499783 109 105 134
0.065602 0.159890 1.505836 121 116 147
0.074241 0.160704 1.513509 148 143 174
0.083214 0.162006 1.525764 171 167 196
0.092893 0.164317 1.547533 188 186 208
0.103470 0.167698 1.579371 176 174 186
-0.107366 0.155399 1.391623 52 60 90
-0.098856 0.154038 1.379436 46 52 81
-0.091032 0.153607 1.375579 49 57 86
-0.083183 0.153052 1.370610 52 60 90
-0.075510 0.152745 1.367864 36 41 74
-0.067847 0.152391 1.364690 34 37 68
-0.060488 0.152718 1.367616 37 39 69
-0.053200 0.153341 1.373201 38 39 65
-0.045956 0.154319 1.381954 47 49 73
-0.039536 0.158994 1.423820 45 47 78
-0.032661 0.163694 1.465908 47 51 86
-0.024710 0.164308 1.471411 47 51 86
-0.016646 0.164402 1.472248 47 54 87
-0.008570 0.164465 1.472813 45 53 83
-0.000488 0.164313 1.471454 54 62 92
0.007590 0.164408 1.472309 61 68 101
0.015698 0.164721 1.475103 68 70 101
0.023852 0.165132 1.478784 76 75 107
0.032041 0.165517 1.482240 87 87 117
0.040329 0.166155 1.487948 96 94 123
0.048695 0.166847 1.494149 103 99 128
0.057070 0.167364 1.498777 113 108 139
0.065610 0.168175 1.506039 129 121 152
0.074282 0.169103 1.514345 154 143 175
0.082979 0.169897 1.521456 164 156 187
0.092249 0.171612 1.536816 185 180 207
0.102347 0.174449 1.562224 187 185 204
-0.106740 0.162084 1.383512 49 54 85
-0.098614 0.161210 1.376046 43 49 78
-0.090867 0.160863 1.373090 45 54 81
-0.083003 0.160226 1.367653 54 63 90
-0.075320 0.159846 1.364411 44 50 79
-0.067832 0.159844 1.364387 41 47 76
-0.060503 0.160261 1.367950 41 44 72
-0.053337 0.161291 1.376738 45 46 74
-0.046683 0.164462 1.403805 63 63 93
-0.040491 0.170836 1.458212 51 53 88
-0.032704 0.171962 1.467830 46 51 82
-0.024661 0.172043 1.468519 51 59 88
-0.016626 0.172283 1.470564 50 56 85
-0.008566 0.172453 1.472017 51 58 91
-0.000489 0.172449 1.471980 53 62 95
0.007595 0.172592 1.473199 62 67 98
0.015709 0.172935 1.476128 70 74 103
0.023843 0.173179 1.478211 81 85 114
0.032040 0.173646 1.482201 86 90 119
0.040311 0.174243 1.487293 97 99 129
0.048585 0.174650 1.490767 101 101 131
0.056989 0.175339 1.496650 127 121 156
0.065542 0.176254 1.504462 142 135 168
0.074159 0.177118 1.511840 143 137 168
0.082711 0.177669 1.516540 164 156 186
0.091614 0.178805 1.526237 181 171 201
0.101703 0.181870 1.552395 194 187 208
0.112753 0.186048 1.588060 65 59 70
-0.116013 0.172171 1.403855 0 0 0
-0.106211 0.168835 1.376659 39 47 76
-0.098653 0.168828 1.376601 39 45 74
-0.090791 0.168256 1.371934 37 45 74
-0.083002 0.167728 1.367630 44 53 80
-0.075383 0.167474 1.365557 44 48 77
-0.067915 0.167534 1.366052 38 40 70
-0.060666 0.168220 1.371645 44 42 71
-0.053694 0.169975 1.385949 53 54 80
-0.047886 0.176601 1.439976 49 55 84
-0.040726 0.179874 1.466663 52 55 86
-0.032685 0.179912 1.466974 52 56 85
-0.024643 0.179971 1.467457 59 67 96
-0.016610 0.180175 1.469124 57 65 94
-0.008548 0.180165 1.469039 70 78 108
-0.000488 0.180371 1.470718 63 70 103
0.007590 0.180560 1.472260 73 78 109
0.015688 0.180792 1.474155 74 80 109
0.023813 0.181068 1.476406 90 92 122
0.031978 0.181427 1.479329 93 92 124
0.040244 0.182100 1.484818 104 102 132
0.048600 0.182885 1.491220 126 124 154
0.056989 0.183552 1.496657 134 129 161
0.065458 0.184274 1.502545 139 134 166
0.073996 0.185008 1.508525 142 137 168
0.082458 0.185422 1.511904 150 145 176
0.091387 0.186716 1.522457 177 169 200
0.101018 0.189106 1.541944 187 176 202
0.111135 0.191966 1.565266 150 143 156
-0.114438 0.177433 1.384804 45 48 79
-0.105994 0.176028 1.373841 40 42 72
-0.098313 0.175774 1.371856 43 47 76
-0.090617 0.175447 1.369307 35 43 72
-0.082968 0.175161 1.367077 42 50 79
-0.075407 0.175022 1.365988 41 45 74
-0.068056 0.175394 1.368892 45 43 72
-0.060997 0.176705 1.379120 49 50 78
-0.054529 0.180339 1.407490 52 58 87
-0.048548 0.187052 1.459880 52 62 92
-0.040675 0.187688 1.464842 49 56 89
-0.032687 0.187972 1.467060 59 64 95
-0.024625 0.187883 1.466366 61 71 101
-0.016605 0.188180 1.468679 65 70 103
-0.008541 0.188059 1.467735 62 71 104
-0.000488 0.188202 1.468856 68 77 110
0.007582 0.188447 1.470766 67 74 107
0.015656 0.188496 1.471152 76 83 116
0.023757 0.188717 1.472876 85 90 121
0.031989 0.189607 1.479821 98 100 131
0.040216 0.190114 1.483774 116 115 147
0.048481 0.190600 1.487573 123 121 151
0.056865 0.191347 1.493398 130 124 159
0.065293 0.192032 1.498746 136 131 163
0.073905 0.193046 1.506662 144 139 170
0.082505 0.193830 1.512776 144 139 170
0.091371 0.195034 1.522177 169 158 190
0.100471 0.196496 1.533590 185 173 201
0.110658 0.199696 1.558558 194 186 203
-0.123425 0.187137 1.400561 49 56 83
-0.114106 0.184495 1.380787 40 46 75
-0.106116 0.183777 1.375420 35 39 68
-0.098090 0.182886 1.368745 39 43 72
-0.090516 0.182757 1.367783 40 46 75
-0.082891 0.182493 1.365806 40 45 76
-0.075511 0.182770 1.367876 41 43 73
-0.068366 0.183738 1.375122 51 52 80
-0.061628 0.186177 1.393378 52 53 81
-0.056025 0.193222 1.446102 60 66 95
-0.048671 0.195558 1.463591 60 67 100
-0.040616 0.195443 1.462729 58 62 97
-0.032562 0.195276 1.461475 62 65 96
-0.024564 0.195443 1.462723 70 76 105
-0.016552 0.195614 1.464002 64 75 105
-0.008525 0.195747 1.464999 64 74 104
-0.000487 0.195972 1.466683 66 77 105
0.007568 0.196156 1.468064 75 81 110
0.015648 0.196467 1.470389 77 81 110
0.023777 0.196965 1.474117 89 91 122
0.031944 0.197451 1.477757 106 103 135
0.040151 0.197939 1.481408 110 109 141
0.048370 0.198307 1.484160 122 119 151
0.056620 0.198679 1.486944 134 127 160
0.065164 0.199861 1.495789 129 119 155
0.073765 0.200934 1.503819 134 127 160
0.082431 0.201948 1.511409 139 131 162
0.091149 0.202893 1.518481 157 144 176
0.100077 0.204108 1.527578 175 158 191
0.110138 0.207268 1.551225 189 178 198
-0.122163 0.192829 1.386236 38 43 74
-0.113816 0.191583 1.377275 41 49 79
-0.105899 0.190933 1.372605 37 44 77
-0.098239 0.190685 1.370822 37 43 72
-0.090462 0.190149 1.366965 46 52 81
-0.082896 0.189998 1.365882 45 50 81
-0.075689 0.190724 1.371100 48 50 81
-0.068676 0.192153 1.381376 57 57 87
-0.062997 0.198131 1.424351 69 72 100
-0.056697 0.203570 1.463454 62 62 92
-0.048680 0.203625 1.463845 63 67 96
-0.040569 0.203231 1.461015 68 70 104
-0.032506 0.202942 1.458934 65 70 101
-0.024516 0.203069 1.459850 59 67 96
-0.016540 0.203490 1.462878 68 80 108
-0.008512 0.203465 1.462694 65 76 104
-0.000486 0.203696 1.464359 74 78 107
0.007551 0.203747 1.464726 77 81 110
0.015634 0.204351 1.469063 71 75 104
0.023770 0.204999 1.473728 91 88 120
0.031899 0.205268 1.475661 107 100 133
0.040128 0.205946 1.480532 109 105 140
0.048311 0.206199 1.482350 113 111 147
0.056644 0.206925 1.487573 131 124 161
0.065002 0.207552 1.492078 133 120 158
0.073652 0.208863 1.501502 135 125 161
0.082262 0.209809 1.508306 142 136 167
0.090852 0.210537 1.513536 145 134 166
0.099904 0.212123 1.524937 168 151 184
0.109896 0.215306 1.547818 178 165 191
0.122952 0.223605 1.607482 50 48 54
-0.133462 0.206138 1.425676 0 0 0
-0.121917 0.200031 1.383438 45 54 88
-0.113353 0.198329 1.371670 44 51 84
-0.105600 0.197905 1.368736 48 52 87
-0.098011 0.197746 1.367632 38 43 76
-0.090319 0.197336 1.364801 33 41 70
-0.082957 0.197638 1.366887 38 46 75
-0.076058 0.199214 1.377785 55 57 87
-0.070039 0.203695 1.408779 65 67 97
-0.064683 0.211456 1.462457 65 72 99
-0.056726 0.211711 1.464220 58 65 92
-0.048650 0.211528 1.462954 60 66 95
-0.040561 0.211207 1.460731 64 72 102
-0.032541 0.211177 1.460525 60 68 98
-0.024502 0.210960 1.459027 70 78 108
-0.016491 0.210902 1.458620 69 77 106
-0.008496 0.211099 1.459988 79 81 111
-0.000486 0.211498 1.462743 82 80 110
0.007543 0.211578 1.463297 79 79 109
0.015592 0.211844 1.465140 81 87 116
0.023730 0.212722 1.471209 81 85 114
0.031862 0.213123 1.473984 93 88 119
0.040092 0.213878 1.479204 109 104 136
0.048219 0.213927 1.479542 118 111 148
0.056495 0.214523 1.483669 124 117 154
0.064946 0.215552 1.490786 134 124 160
0.073388 0.216325 1.496128 138 132 163
0.082033 0.217480 1.504116 139 134 165
0.090651 0.218357 1.510185 149 138 170
0.099840 0.220351 1.523971 163 147 178
0.109805 0.223614 1.546542 174 161 187
0.122416 0.231411 1.600467 97 93 104
-0.131015 0.210038 1.399537 49 51 92
-0.121771 0.207374 1.381783 47 50 88
-0.113043 0.205294 1.367923 43 50 83
-0.105249 0.204733 1.364185 47 55 84
-0.097735 0.204672 1.363784 39 41 75
-0.090366 0.204931 1.365509 40 42 73
-0.083305 0.206001 1.372634 48 48 78
-0.077009 0.209360 1.395021 62 66 94
-0.072101 0.217649 1.450250 70 76 105
-0.064859 0.220080 1.466450 63 71 101
-0.056730 0.219761 1.464324 56 64 94
-0.048572 0.219205 1.460618 57 65 95
-0.040500 0.218895 1.458552 59 67 96
-0.032472 0.218728 1.457440 68 76 105
-0.024456 0.218555 1.456285 76 82 111
-0.016482 0.218785 1.457819 70 75 106
-0.008497 0.219141 1.460194 77 77 107
-0.000484 0.218930 1.458789 87 84 116
0.007529 0.219183 1.460473 82 82 112
0.015582 0.219738 1.464167 84 88 117
0.023680 0.220332 1.468126 88 90 120
0.031770 0.220569 1.469710 91 90 122
0.040018 0.221584 1.476473 102 96 131
0.048218 0.222038 1.479494 109 103 138
0.056497 0.222671 1.483714 121 115 150
0.064853 0.223413 1.488655 126 120 155
0.073381 0.224511 1.495975 140 133 166
0.081934 0.225460 1.502296 143 137 168
0.090701 0.226769 1.511018 149 136 168
0.099858 0.228752 1.524234 154 137 170
0.109703 0.231885 1.545106 165 150 178
0.121795 0.238975 1.592351 145 139 150
-0.130449 0.216778 1.393498 48 49 87
-0.121454 0.214397 1.378194 40 45 78
-0.112910 0.212548 1.366309 51 54 85
-0.104988 0.211692 1.360801 51 54 85
-0.097755 0.212200 1.364070 40 39 78
-0.090565 0.212893 1.368522 55 54 88
-0.083699 0.214541 1.379115 59 57 87
-0.078567 0.221403 1.423231 70 74 102
-0.072804 0.227807 1.464392 61 69 98
-0.064797 0.227909 1.465048 62 70 99
-0.056699 0.227670 1.463514 57 65 95
-0.048534 0.227041 1.459472 57 65 95
-0.040422 0.226457 1.455713 52 66 95
-0.032391 0.226156 1.453781 63 71 101
-0.024403 0.226054 1.453128 73 75 105
-0.016451 0.226352 1.455040 69 75 104
-0.008482 0.226743 1.457552 76 79 110
-0.000484 0.226947 1.458869 87 86 118
0.007528 0.227165 1.460266 85 82 114
0.015580 0.227747 1.464008 91 88 120
0.023644 0.228041 1.465899 91 86 118
0.031711 0.228212 1.467000 91 89 125
0.039881 0.228902 1.471430 98 100 135
0.048072 0.229462 1.475032 106 106 142
0.056303 0.230021 1.478628 117 110 147
0.064690 0.230999 1.484910 120 111 151
0.073199 0.232144 1.492274 124 113 153
0.081770 0.233237 1.499298 137 125 161
0.090565 0.234708 1.508756 146 133 165
0.099971 0.237385 1.525962 151 136 167
0.109380 0.239655 1.540554 159 144 171
0.120061 0.244187 1.569685 157 149 159
-0.129650 0.223049 1.384961 51 54 92
-0.121308 0.221693 1.376536 52 54 89
-0.113195 0.220601 1.369756 47 47 83
-0.105346 0.219907 1.365448 39 41 76
-0.097985 0.220201 1.367275 44 44 84
-0.090731 0.220805 1.371022 52 51 85
-0.084389 0.223939 1.390486 68 70 100
-0.080309 0.234296 1.454793 69 73 101
-0.073040 0.236607 1.469139 64 71 98
-0.064783 0.235897 1.464731 58 67 94
-0.056586 0.235230 1.460590 53 61 90
-0.048503 0.234900 1.458545 51 59 88
-0.040416 0.234412 1.455516 58 61 92
-0.032349 0.233829 1.451893 62 65 96
-0.024414 0.234137 1.453806 70 73 104
-0.016427 0.233994 1.452916 68 72 101
-0.008459 0.234109 1.453635 75 77 107
-0.000483 0.234500 1.456060 84 87 118
0.007516 0.234792 1.457872 99 98 132
0.015553 0.235369 1.461457 103 99 134
0.023602 0.235670 1.463324 106 100 135
0.031696 0.236146 1.466282 87 86 125
0.039829 0.236666 1.469507 82 86 121
0.048007 0.237231 1.473015 99 100 134
0.056244 0.237886 1.477087 111 107 143
0.064661 0.239041 1.484253 111 106 145
0.073092 0.239979 1.490081 122 114 151
0.081605 0.240976 1.496271 126 115 148
0.090427 0.242616 1.506454 142 127 159
0.099801 0.245341 1.523372 153 137 168
0.109537 0.248463 1.542762 150 137 161
0.121180 0.255155 1.584313 181 178 187
-0.139265 0.234036 1.405297 0 0 0
-0.129062 0.229603 1.378679 48 50 85
-0.120982 0.228629 1.372832 53 59 96
-0.113050 0.227824 1.368000 39 43 78
-0.105449 0.227620 1.366772 38 41 79
-0.097996 0.227730 1.367433 43 42 81
-0.090816 0.228543 1.372315 61 56 88
-0.085309 0.234093 1.405643 70 71 99
-0.081063 0.244553 1.468448 69 75 104
-0.073010 0.244569 1.468548 65 69 98
-0.064743 0.243782 1.463818 50 62 90
-0.056542 0.243056 1.459460 57 65 94
-0.048445 0.242609 1.456775 53 61 90
-0.040397 0.242283 1.454819 54 60 89
-0.032325 0.241621 1.450846 56 64 93
-0.024326 0.241240 1.448558 61 69 98
-0.016400 0.241566 1.450511 69 77 106
-0.008447 0.241760 1.451678 74 76 111
-0.000482 0.241809 1.451972 86 88 123
0.007509 0.242576 1.456581 98 99 133
0.015513 0.242757 1.457664 108 110 141
0.023571 0.243379 1.461401 106 104 140
0.031642 0.243777 1.463790 103 100 139
0.039796 0.244529 1.468303 102 95 132
0.047986 0.245206 1.472371 102 96 131
0.056190 0.245756 1.475673 105 101 136
0.064491 0.246534 1.480344 107 103 138
0.073099 0.248183 1.490244 113 108 140
0.081719 0.249534 1.498356 124 113 145
0.090548 0.251217 1.508467 134 117 150
0.099613 0.253221 1.520500 142 127 158
0.109744 0.257414 1.545675 153 141 163
0.122373 0.266445 1.599902 152 151 155
-0.137619 0.238889 1.388687 57 60 98
-0.129038 0.237123 1.378420 62 67 100
-0.120758 0.235724 1.370288 54 56 90
-0.112830 0.234874 1.365345 42 47 78
-0.105198 0.234560 1.363523 44 47 85
-0.097809 0.234784 1.364820 46 46 82
-0.090836 0.236124 1.372614 63 62 96
-0.085785 0.243155 1.413483 81 79 109
-0.081090 0.252694 1.468933 61 65 94
-0.072895 0.252228 1.466225 58 61 92
-0.064686 0.251591 1.462524 50 61 89
-0.056451 0.250660 1.457109 51 59 88
-0.048391 0.250324 1.455160 49 55 84
-0.040313 0.249747 1.451803 48 56 85
-0.032285 0.249269 1.449026 57 65 94
-0.024303 0.248950 1.447173 60 68 97
-0.016370 0.249068 1.447860 59 65 94
-0.008429 0.249168 1.448439 72 75 106
-0.000482 0.249749 1.451816 86 88 122
0.007502 0.250347 1.455293 95 97 131
0.015488 0.250357 1.455349 106 108 143
0.023514 0.250789 1.457862 98 102 137
0.031595 0.251437 1.461630 99 100 138
0.039771 0.252427 1.467381 107 105 141
0.047907 0.252869 1.469952 111 110 149
0.056123 0.253549 1.473907 102 103 137
0.064497 0.254681 1.480487 106 105 137
0.072923 0.255742 1.486652 107 102 133
0.081645 0.257521 1.496996 114 106 137
0.090444 0.259197 1.506735 132 120 150
0.099598 0.261525 1.520269 129 116 148
0.109932 0.266353 1.548334 144 136 153
-0.146952 0.249418 1.405071 60 64 105
-0.137152 0.245672 1.383973 56 61 100
-0.128712 0.244069 1.374942 58 59 97
-0.120548 0.242821 1.367907 54 56 91
-0.112739 0.242170 1.364245 47 52 85
-0.105225 0.242106 1.363880 48 51 82
-0.097936 0.242586 1.366585 49 48 82
-0.090923 0.243888 1.373923 61 55 90
-0.085636 0.250476 1.411034 72 68 103
-0.081027 0.260553 1.467800 57 57 87
-0.072885 0.260238 1.466025 48 50 80
-0.064676 0.259575 1.462294 47 51 80
-0.056439 0.258599 1.456794 42 46 75
-0.048329 0.257980 1.453308 47 49 79
-0.040276 0.257478 1.450481 46 48 78
-0.032248 0.256929 1.447386 54 56 86
-0.024278 0.256624 1.445669 62 62 92
-0.016362 0.256889 1.447158 64 62 92
-0.008423 0.256943 1.447467 70 70 100
-0.000481 0.257285 1.449392 75 78 109
0.007468 0.257164 1.448712 91 93 127
0.015423 0.257263 1.449267 104 104 140
0.023435 0.257913 1.452927 107 107 143
0.031506 0.258724 1.457497 108 109 147
0.039591 0.259296 1.460722 109 112 150
0.047827 0.260502 1.467513 111 111 151
0.056096 0.261513 1.473207 104 103 142
0.064477 0.262723 1.480025 110 106 142
0.072968 0.264062 1.487569 106 99 132
0.081550 0.265427 1.495260 115 103 131
0.090338 0.267151 1.504970 117 105 133
0.099839 0.270520 1.523951 126 111 142
0.110035 0.275106 1.549782 136 126 142
-0.145416 0.254439 1.390383 58 65 104
-0.136745 0.252516 1.379872 51 55 96
-0.128292 0.250793 1.370455 57 62 101
-0.120499 0.250224 1.367347 63 66 104
-0.112802 0.249795 1.365003 43 47 82
-0.105318 0.249809 1.365080 41 41 77
-0.098029 0.250324 1.367893 58 51 88
-0.090939 0.251474 1.374178 75 60 98
-0.085434 0.257611 1.407713 75 69 104
-0.080866 0.268073 1.464882 52 54 85
-0.072719 0.267670 1.462682 44 48 76
-0.064481 0.266795 1.457901 51 56 81
-0.056405 0.266433 1.455920 40 42 72
-0.048315 0.265876 1.452877 46 46 76
-0.040273 0.265415 1.450359 49 50 78
-0.032224 0.264671 1.446293 45 48 76
-0.024275 0.264533 1.445538 51 54 82
-0.016344 0.264546 1.445613 58 58 88
-0.008411 0.264526 1.445500 61 63 93
-0.000480 0.264364 1.444616 70 72 106
0.007446 0.264325 1.444403 75 79 114
0.015399 0.264792 1.446953 92 93 131
0.023392 0.265400 1.450276 97 96 135
0.031433 0.266108 1.454146 110 107 146
0.039519 0.266829 1.458087 108 105 144
0.047717 0.267933 1.464117 110 107 146
0.055979 0.269031 1.470120 104 103 143
0.064414 0.270578 1.478571 109 105 141
0.073051 0.272531 1.489245 110 104 135
0.081739 0.274267 1.498731 105 93 123
0.090468 0.275807 1.507144 112 96 127
0.100508 0.280751 1.534162 117 102 129
0.111013 0.286130 1.563555 121 113 124
-0.154729 0.264951 1.405676 64 67 112
-0.144632 0.260656 1.382886 57 63 106
-0.136190 0.259032 1.374271 59 60 104
-0.128125 0.257976 1.368671 54 53 93
-0.120239 0.257171 1.364399 52 61 94
-0.112715 0.257087 1.363952 31 36 67
-0.105259 0.257154 1.364310 38 37 76
-0.097741 0.257071 1.363869 44 40 81
-0.090812 0.258650 1.372246 65 57 97
-0.085095 0.264280 1.402115 76 75 107
-0.080740 0.275681 1.462600 49 57 86
-0.072631 0.275365 1.460927 39 50 77
-0.064413 0.274505 1.456365 37 48 70
-0.056397 0.274381 1.455704 44 51 76
-0.048323 0.273892 1.453110 41 48 75
-0.040238 0.273135 1.449095 50 60 84
-0.032233 0.272686 1.446711 51 58 83
-0.024259 0.272283 1.444574 52 55 83
-0.016362 0.272777 1.447197 55 59 88
-0.008410 0.272399 1.445189 53 59 88
-0.000479 0.272116 1.443690 61 68 101
0.007443 0.272129 1.443756 70 72 107
0.015395 0.272671 1.446635 85 86 124
0.023373 0.273139 1.449114 88 88 128
0.031370 0.273535 1.451218 108 104 145
0.039485 0.274593 1.456827 112 107 146
0.047577 0.275158 1.459825 104 104 140
0.055860 0.276507 1.466987 105 107 141
0.064329 0.278323 1.476617 109 107 137
0.073119 0.280968 1.490650 105 99 130
0.081862 0.282916 1.500986 103 92 124
0.090816 0.285168 1.512934 105 90 121
0.100528 0.289226 1.534462 108 95 117
0.110572 0.293539 1.557348 115 111 116
-0.152582 0.268881 1.386170 64 61 110
-0.144065 0.267192 1.377466 63 61 107
-0.135747 0.265706 1.369802 68 58 104
-0.128065 0.265361 1.368027 64 67 105
-0.120151 0.264464 1.363401 41 45 80
-0.112350 0.263714 1.359533 47 49 80
-0.105064 0.264152 1.361794 42 43 81
-0.097723 0.264505 1.363614 47 41 82
-0.090458 0.265144 1.366906 61 53 93
-0.084970 0.271576 1.400066 77 74 106
-0.080479 0.282790 1.457879 46 52 81
-0.072406 0.282502 1.456395 37 45 74
-0.064303 0.282012 1.453869 42 49 74
-0.056230 0.281536 1.451413 52 57 82
-0.048266 0.281534 1.451401 39 49 73
-0.040225 0.280998 1.448639 47 57 81
-0.032267 0.280915 1.448211 48 55 80
-0.024247 0.280072 1.443864 58 59 87
-0.016332 0.280200 1.444525 57 59 89
-0.008395 0.279844 1.442692 55 66 94
-0.000479 0.279878 1.442865 54 64 94
0.007432 0.279629 1.441583 58 64 99
0.015371 0.280169 1.444365 73 76 114
0.023368 0.281030 1.448804 84 85 123
0.031399 0.281752 1.452527 95 92 131
0.039464 0.282434 1.456044 103 95 135
0.047610 0.283367 1.460853 115 108 145
0.055867 0.284593 1.467171 114 108 143
0.064394 0.286715 1.478113 112 106 137
0.073194 0.289441 1.492166 107 99 129
0.082119 0.292063 1.505681 93 79 107
0.091324 0.295112 1.521401 94 81 107
0.101228 0.299717 1.545144 114 105 118
0.113280 0.309482 1.595486 125 124 126
-0.162887 0.281146 1.409528 60 55 100
-0.151778 0.275031 1.378873 69 66 112
-0.143872 0.274382 1.375619 62 59 105
-0.135780 0.273287 1.370131 64 60 102
-0.127889 0.272494 1.366150 55 58 96
-0.120004 0.271613 1.361736 41 45 80
-0.112400 0.271294 1.360134 43 43 79
-0.105004 0.271467 1.361005 41 43 78
-0.097685 0.271883 1.363089 37 38 76
-0.090602 0.273077 1.369077 56 54 90
-0.085254 0.280192 1.404746 73 73 103
-0.080494 0.290842 1.458140 45 52 79
-0.072399 0.290465 1.456251 36 45 72
-0.064196 0.289507 1.451448 44 49 74
-0.056155 0.289112 1.449466 49 54 79
-0.048222 0.289237 1.450094 48 53 78
-0.040140 0.288335 1.445570 49 56 81
-0.032222 0.288459 1.446193 56 59 87
-0.024260 0.288146 1.444623 58 61 89
-0.016306 0.287673 1.442252 54 58 87
-0.008391 0.287631 1.442043 50 56 85
-0.000478 0.287181 1.439784 57 65 94
0.007422 0.287168 1.439719 48 60 88
0.015341 0.287536 1.441565 63 71 101
0.023310 0.288263 1.445210 79 80 114
0.031276 0.288589 1.446845 78 79 113
0.039424 0.290128 1.454562 93 87 122
0.047580 0.291195 1.459912 107 102 134
0.055943 0.293043 1.469176 109 103 134
0.064264 0.294232 1.475137 109 103 134
0.073235 0.297797 1.493009 107 99 129
0.082207 0.300647 1.507298 91 76 107
0.091811 0.305078 1.529511 77 75 94
0.102982 0.313539 1.571931 127 130 138
-0.161312 0.286086 1.395896 66 58 105
-0.151629 0.282319 1.377517 58 57 101
-0.143192 0.280598 1.369116 65 62 107
-0.135139 0.279479 1.363658 62 61 103
-0.127500 0.279137 1.361991 46 51 90
-0.119836 0.278694 1.359826 48 48 88
-0.112225 0.278324 1.358023 50 47 86
-0.105022 0.278985 1.361249 49 44 83
-0.097760 0.279576 1.364134 47 42 81
-0.090695 0.280880 1.370492 57 50 87
-0.085665 0.289287 1.411515 57 57 87
-0.080515 0.298922 1.458528 43 48 73
-0.072389 0.298413 1.456043 39 46 71
-0.064329 0.298087 1.454450 47 54 81
-0.056208 0.297344 1.450826 43 50 77
-0.048223 0.297199 1.450118 54 58 86
-0.040162 0.296428 1.446356 50 54 82
-0.032203 0.296217 1.445329 52 55 83
-0.024250 0.295954 1.444043 59 60 88
-0.016309 0.295641 1.442515 53 57 85
-0.008391 0.295518 1.441916 58 64 93
-0.000477 0.294773 1.438280 49 57 86
0.007411 0.294629 1.437579 58 66 95
0.015308 0.294799 1.438407 64 69 102
0.023237 0.295263 1.440675 66 68 103
0.031225 0.296048 1.444502 76 75 109
0.039353 0.297573 1.451942 80 85 116
0.047557 0.299067 1.459234 100 98 128
0.055767 0.300159 1.464560 111 106 137
0.064437 0.303139 1.479101 110 105 136
0.073654 0.307738 1.501540 100 92 122
0.082870 0.311412 1.519468 80 74 99
0.093415 0.318948 1.556238 83 102 115
-0.160059 0.291465 1.385059 59 56 105
-0.150940 0.288561 1.371259 60 57 103
-0.142854 0.287431 1.365887 46 43 89
-0.134945 0.286551 1.361707 51 50 94
-0.127264 0.286081 1.359473 41 40 84
-0.119820 0.286117 1.359643 44 39 84
-0.112190 0.285686 1.357598 47 42 87
-0.105049 0.286528 1.361598 44 37 80
-0.097721 0.286948 1.363593 55 45 87
-0.090775 0.288654 1.371700 71 56 94
-0.086508 0.299956 1.425410 53 51 81
-0.080456 0.306699 1.457452 47 50 78
-0.072418 0.306529 1.456644 45 51 74
-0.064295 0.305907 1.453686 50 54 78
-0.056207 0.305302 1.450813 48 51 79
-0.048097 0.304360 1.446335 44 48 77
-0.040118 0.304032 1.444780 51 57 86
-0.032178 0.303916 1.444226 53 59 88
-0.024193 0.303160 1.440632 54 58 87
-0.016288 0.303150 1.440586 60 64 89
-0.008385 0.303243 1.441027 59 61 91
-0.000478 0.302685 1.438377 53 57 86
0.007412 0.302557 1.437767 54 58 87
0.015318 0.302895 1.439377 50 54 83
0.023236 0.303157 1.440621 66 68 102
0.031209 0.303816 1.443751 68 71 102
0.039348 0.305502 1.451761 79 82 110
0.047498 0.306692 1.457418 97 98 126
0.055821 0.308493 1.465976 102 97 128
0.064461 0.311373 1.479661 99 91 122
0.073792 0.316570 1.504359 96 88 118
0.083903 0.323732 1.538393 76 77 98
0.095129 0.333497 1.584798 70 78 95
-0.159392 0.297818 1.379282 43 44 88
-0.150630 0.295477 1.368442 45 42 88
-0.142750 0.294711 1.364895 49 43 90
-0.134869 0.293858 1.360943 47 39 86
-0.127227 0.293455 1.359075 47 40 85
-0.119751 0.293410 1.358869 52 47 92
-0.112264 0.293329 1.358492 45 44 88
-0.105069 0.294055 1.361855 35 35 75
-0.097683 0.294316 1.363064 48 41 84
-0.090912 0.296627 1.373770 66 58 98
-0.087205 0.310257 1.436893 58 56 85
-0.080340 0.314245 1.455362 45 49 74
-0.072267 0.313863 1.453594 42 49 69
-0.064179 0.313316 1.451059 43 49 72
-0.056128 0.312820 1.448765 43 47 75
-0.048092 0.312260 1.446170 50 59 86
-0.040094 0.311777 1.443931 45 55 79
-0.032131 0.311388 1.442130 41 54 80
-0.024169 0.310758 1.439211 45 53 82
-0.016278 0.310863 1.439701 53 57 86
-0.008376 0.310795 1.439383 52 56 85
-0.000477 0.310307 1.437125 52 58 87
0.007403 0.310091 1.436122 50 56 85
0.015323 0.310892 1.439834 49 56 83
0.023249 0.311232 1.441407 60 62 92
0.031184 0.311490 1.442603 61 63 93
0.039271 0.312854 1.448919 74 72 102
0.047383 0.313923 1.453872 89 81 112
0.055883 0.316886 1.467595 98 88 118
0.064613 0.320243 1.483143 108 96 124
0.074063 0.326018 1.509886 91 83 106
0.084709 0.335367 1.553186 8 7 23
-0.159385 0.305372 1.379221 39 34 79
-0.150742 0.303210 1.369454 45 38 83
-0.142718 0.302133 1.364588 42 35 80
-0.135111 0.301866 1.363383 30 26 68
-0.127471 0.301490 1.361687 25 23 65
-0.119774 0.300924 1.359128 31 29 71
-0.112645 0.301805 1.363107 20 20 56
-0.105249 0.302044 1.364188 30 33 64
-0.097807 0.302177 1.364790 43 39 80
-0.091414 0.305844 1.381351 58 51 86
-0.087860 0.320528 1.447672 52 51 77
-0.080320 0.322149 1.454992 47 49 73
-0.072127 0.321215 1.450774 44 49 74
-0.064034 0.320551 1.447777 44 48 76
-0.055992 0.319997 1.445271 40 44 68
-0.048002 0.319595 1.443459 50 55 80
-0.040041 0.319271 1.441992 49 56 81
-0.032082 0.318814 1.439932 51 58 83
-0.024140 0.318273 1.437488 53 58 83
-0.016252 0.318265 1.437451 53 57 85
-0.008360 0.318096 1.436689 48 54 83
-0.000476 0.317710 1.434945 49 60 88
0.007403 0.317954 1.436044 46 57 85
0.015298 0.318276 1.437501 50 56 85
0.023217 0.318708 1.439450 61 61 91
0.031159 0.319147 1.441436 63 63 93
0.039183 0.320088 1.445685 74 72 102
0.047328 0.321531 1.452201 78 73 104
0.055882 0.324937 1.467586 102 92 122
0.064848 0.329576 1.488538 98 90 113
0.074664 0.337014 1.522133 81 78 93
0.086529 0.351276 1.586546 4 9 12
-0.159377 0.312925 1.379154 34 30 71
-0.151088 0.311438 1.372598 37 31 72
-0.142932 0.310083 1.366628 38 33 72
-0.135308 0.309798 1.365373 26 24 60
-0.127712 0.309545 1.364258 25 25 61
-0.120136 0.309313 1.363235 34 30 65
-0.113107 0.310551 1.368691 19 19 49
-0.105568 0.310468 1.368327 25 29 58
-0.098106 0.310612 1.368960 35 35 71
-0.092114 0.315824 1.391929 60 57 89
-0.088228 0.329851 1.453750 44 48 73
-0.080282 0.329974 1.454294 39 43 67
-0.072172 0.329382 1.451686 37 42 67
-0.064074 0.328703 1.448693 40 43 71
-0.055946 0.327658 1.444086 47 51 76
-0.047945 0.327129 1.441756 49 56 83
-0.039988 0.326750 1.440086 49 56 83
-0.032038 0.326269 1.437963 56 63 90
-0.024159 0.326414 1.438604 47 52 77
-0.016258 0.326271 1.437973 55 60 85
-0.008355 0.325779 1.435803 52 57 82
-0.000477 0.325679 1.435366 56 63 90
0.007399 0.325655 1.435260 54 62 91
0.015288 0.325950 1.436559 50 58 87
0.023224 0.326697 1.439851 54 58 87
0.031190 0.327389 1.442902 55 57 87
0.039160 0.327825 1.444824 68 65 97
0.047345 0.329618 1.452725 71 67 96
0.055856 0.332835 1.466902 95 91 116
0.064857 0.337791 1.488746 95 93 115
0.075276 0.348197 1.534606 62 65 79
-0.159173 0.320084 1.377394 43 40 79
-0.151420 0.319670 1.375613 26 20 61
-0.143244 0.318277 1.369617 38 35 74
-0.135468 0.317666 1.366988 33 33 69
-0.128012 0.317777 1.367466 33 32 64
-0.120230 0.317040 1.364297 37 38 72
-0.113402 0.318892 1.372266 25 27 62
-0.106114 0.319618 1.375391 28 32 67
-0.098286 0.318709 1.371478 35 34 73
-0.092042 0.323207 1.390836 64 63 95
-0.088215 0.337776 1.453529 47 52 77
-0.080124 0.337292 1.451445 35 42 67
-0.072042 0.336740 1.449069 38 42 70
-0.063962 0.336064 1.446163 45 46 72
-0.055926 0.335459 1.443558 48 48 78
-0.048007 0.335473 1.443618 45 51 80
-0.040004 0.334785 1.440658 52 58 87
-0.032017 0.333936 1.437005 49 56 81
-0.024164 0.334377 1.438900 47 55 78
-0.016266 0.334320 1.438654 50 58 81
-0.008350 0.333461 1.434961 46 57 79
-0.000477 0.333672 1.435866 50 61 83
0.007402 0.333681 1.435906 49 58 85
0.015295 0.333976 1.437174 53 64 92
0.023215 0.334471 1.439307 56 64 93
0.031198 0.335385 1.443241 57 59 89
0.039211 0.336187 1.446692 62 60 90
0.047335 0.337519 1.452420 80 75 102
0.055816 0.340638 1.465845 94 88 113
0.065179 0.347678 1.496139 92 92 110
0.075344 0.356940 1.535996 43 48 57
-0.168351 0.330824 1.390774 49 47 76
-0.159118 0.327528 1.376917 40 38 74
-0.151512 0.327418 1.376454 22 22 58
-0.143327 0.325981 1.370412 40 41 79
-0.135217 0.324563 1.364453 27 32 65
-0.128535 0.326608 1.373050 26 28 58
-0.120572 0.325450 1.368180 31 33 63
-0.113538 0.326812 1.373907 29 32 63
-0.106596 0.328652 1.381642 17 22 55
-0.098468 0.326838 1.374018 34 32 68
-0.092445 0.332287 1.396924 60 55 86
-0.088076 0.345207 1.451238 51 51 75
-0.080154 0.345385 1.451986 52 54 78
-0.071955 0.344277 1.447327 42 46 74
-0.063891 0.343618 1.444560 41 43 73
-0.055907 0.343261 1.443056 48 52 80
-0.047879 0.342481 1.439776 40 48 77
-0.039909 0.341877 1.437238 44 52 81
-0.031991 0.341543 1.435836 46 54 83
-0.024126 0.341730 1.436622 53 57 85
-0.016236 0.341593 1.436047 53 58 83
-0.008346 0.341172 1.434274 52 57 82
-0.000476 0.340902 1.433141 52 58 81
0.007390 0.341009 1.433589 51 55 79
0.015268 0.341269 1.434681 48 53 78
0.023157 0.341513 1.435707 50 55 80
0.031152 0.342803 1.441131 56 59 87
0.039221 0.344221 1.447094 66 65 91
0.047395 0.345921 1.454241 84 81 106
0.055892 0.349154 1.467833 102 97 118
0.064864 0.354166 1.488903 84 82 101
0.075245 0.364891 1.533989 25 28 36
-0.167072 0.335884 1.380208 41 38 77
-0.158977 0.334785 1.375691 31 29 65
-0.151511 0.334969 1.376446 20 20 56
-0.143636 0.334217 1.373358 30 33 71
-0.135880 0.333678 1.371142 28 30 64
-0.129099 0.335609 1.379078 19 19 49
-0.120975 0.334070 1.372753 30 30 60
-0.113601 0.334538 1.374675 33 33 63
-0.107082 0.337766 1.387940 23 23 53
-0.099026 0.336273 1.381803 29 27 57
-0.093474 0.343736 1.412473 45 43 72
-0.087943 0.352636 1.449042 45 49 73
-0.079818 0.351869 1.445891 47 51 75
-0.071792 0.351419 1.444043 46 50 75
-0.063755 0.350795 1.441480 45 49 78
-0.055793 0.350463 1.440115 46 55 82
-0.047819 0.349938 1.437958 50 59 86
-0.039900 0.349688 1.436929 49 57 86
-0.031991 0.349422 1.435835 54 60 89
-0.024101 0.349259 1.435166 51 55 84
-0.016230 0.349346 1.435525 43 47 76
-0.008343 0.348914 1.433749 47 53 82
-0.000476 0.348723 1.432963 50 54 83
0.007403 0.349452 1.435958 51 55 83
0.015268 0.349135 1.434656 48 55 82
0.023150 0.349292 1.435301 43 52 79
0.031174 0.350954 1.442133 49 56 81
0.039196 0.351936 1.446168 61 62 88
0.047350 0.353566 1.452867 86 83 108
0.055947 0.357560 1.469277 92 90 112
0.065107 0.363693 1.494477 81 81 99
0.075147 0.372819 1.531978 26 32 39
-0.166735 0.342764 1.377420 45 54 74
-0.159133 0.342670 1.377043 25 27 57
-0.151924 0.343455 1.380196 18 16 46
-0.144028 0.342687 1.377110 29 31 62
-0.136338 0.342353 1.375767 28 26 56
-0.130005 0.345585 1.388756 12 10 39
-0.121430 0.342888 1.377917 25 25 55
-0.114298 0.344178 1.383105 34 37 65
-0.109385 0.352810 1.417791 33 38 59
-0.102956 0.357500 1.436639 41 49 66
-0.096190 0.361702 1.453525 53 58 79
-0.088029 0.360939 1.450457 41 52 74
-0.079756 0.359525 1.444777 50 56 79
-0.071738 0.359073 1.442961 51 53 77
-0.063756 0.358709 1.441496 51 50 76
-0.055721 0.357904 1.438260 52 56 84
-0.047789 0.357607 1.437069 50 54 83
-0.039899 0.357565 1.436898 45 48 79
-0.031956 0.356914 1.434284 57 57 87
-0.024086 0.356911 1.434272 50 54 79
-0.016222 0.357033 1.434759 48 56 79
-0.008344 0.356801 1.433830 45 55 79
-0.000476 0.357126 1.435135 46 52 81
0.007405 0.357447 1.436426 48 53 84
0.015286 0.357440 1.436396 43 51 80
0.023230 0.358390 1.440216 37 48 76
0.031211 0.359297 1.443861 49 54 79
0.039216 0.360049 1.446880 60 61 82
0.047465 0.362414 1.456386 80 78 100
0.055925 0.365479 1.468703 80 76 101
0.065292 0.372948 1.498718 77 77 95
0.076265 0.386898 1.554776 14 21 30
-0.161562 0.355572 1.398062 21 29 52
-0.153566 0.354823 1.395118 25 21 46
-0.145723 0.354364 1.393313 25 27 57
-0.137940 0.354013 1.391932 26 25 59
-0.132648 0.360386 1.416988 24 39 71
-0.123230 0.355643 1.398341 59 92 125
-0.115854 0.356556 1.401932 54 90 120
-0.106409 0.377639 1.484827 50 56 79
-0.096806 0.372043 1.462824 57 64 84
-0.088282 0.369960 1.454636 47 57 75
-0.079906 0.368141 1.447483 42 51 71
-0.071692 0.366754 1.442027 49 57 80
-0.063642 0.365962 1.438915 48 54 77
-0.055705 0.365695 1.437863 52 57 82
-0.047766 0.365314 1.436368 55 59 84
-0.039846 0.364960 1.434976 55 59 84
-0.031926 0.364436 1.432913 53 55 79
-0.024074 0.364592 1.433526 49 53 77
-0.016174 0.363831 1.430538 50 53 81
-0.008323 0.363768 1.430290 48 55 82
-0.000476 0.364487 1.433115 52 58 87
0.007398 0.364990 1.435094 46 54 83
0.015293 0.365484 1.437034 43 52 79
0.023217 0.366090 1.439420 44 55 82
0.031191 0.366984 1.442934 47 54 81
0.039229 0.368109 1.447355 68 69 95
0.047539 0.370983 1.458657 84 78 101
0.056098 0.374692 1.473238 89 79 102
0.065517 0.382485 1.503882 71 70 96
0.074240 0.384928 1.513487 48 61 77
-0.107231 0.388765 1.496290 47 53 82
-0.096906 0.380463 1.464338 54 59 84
-0.088292 0.377983 1.454792 53 56 77
-0.079869 0.375911 1.446817 58 65 85
-0.071601 0.374192 1.440201 54 62 85
-0.063496 0.373005 1.435633 47 54 81
-0.055555 0.372578 1.433990 48 53 78
-0.047689 0.372594 1.434050 47 52 77
-0.039748 0.371924 1.431472 54 58 83
-0.031920 0.372224 1.432627 48 55 82
-0.024048 0.372068 1.432028 50 55 80
-0.016171 0.371603 1.430237 46 50 79
-0.008335 0.372169 1.432415 49 51 81
-0.000476 0.372901 1.435234 42 46 75
0.007388 0.372349 1.433110 43 44 72
0.015268 0.372764 1.434704 43 44 70
0.023225 0.374117 1.439912 50 52 76
0.031220 0.375253 1.444286 46 52 75
0.039292 0.376659 1.449697 61 62 83
0.047582 0.379336 1.460000 76 75 95
0.056281 0.384024 1.478043 88 80 103
0.065822 0.392558 1.510890 73 70 96
0.075577 0.400316 1.540748 0 0 0
-0.108627 0.402143 1.515769 0 0 0
-0.097053 0.389086 1.466556 49 56 81
-0.088189 0.385517 1.453102 54 61 81
-0.079761 0.383330 1.444858 58 62 81
-0.071678 0.382508 1.441760 49 53 77
-0.063581 0.381389 1.437543 44 49 74
-0.055645 0.381060 1.436303 48 56 79
-0.047718 0.380696 1.434930 48 56 79
-0.039801 0.380277 1.433350 52 57 82
-0.031928 0.380187 1.433012 43 52 79
-0.024065 0.380184 1.433001 47 51 76
-0.016208 0.380328 1.433545 49 52 80
-0.008351 0.380727 1.435046 46 47 73
-0.000477 0.381408 1.437614 44 49 74
0.007422 0.381945 1.439637 42 54 78
0.015328 0.382120 1.440300 52 41 73
0.023252 0.382457 1.441568 51 49 78
0.031268 0.383768 1.446511 47 47 71
0.039401 0.385685 1.453736 63 62 82
0.047671 0.388066 1.462709 74 73 93
0.056352 0.392632 1.479920 83 81 103
0.065793 0.400673 1.510230 65 73 96
0.076668 0.414674 1.563002 54 77 93
-0.097201 0.397741 1.468801 59 66 85
-0.088216 0.393610 1.453543 52 62 80
-0.079876 0.391822 1.446942 57 62 83
-0.071681 0.390433 1.441811 52 60 83
-0.063570 0.389212 1.437304 42 53 75
-0.055622 0.388779 1.435705 55 66 88
-0.047696 0.388386 1.434253 50 58 81
-0.039810 0.388229 1.433674 48 52 80
-0.031931 0.388090 1.433159 48 55 82
-0.024046 0.387748 1.431898 50 53 81
-0.016187 0.387698 1.431711 46 49 77
-0.008341 0.388173 1.433466 39 42 70
-0.000477 0.388780 1.435706 46 42 71
0.007410 0.389246 1.437427 50 53 81
0.015314 0.389676 1.439016 44 45 73
0.023268 0.390636 1.442562 46 50 75
0.031305 0.392166 1.448213 54 59 80
0.039478 0.394424 1.456549 60 58 78
0.047826 0.397379 1.467464 74 69 90
0.056719 0.403365 1.489568 88 82 105
0.066326 0.412275 1.522472 69 77 100
0.077115 0.425719 1.572116 33 54 75
-0.097610 0.407506 1.474974 52 63 85
-0.088410 0.402468 1.456737 59 67 90
-0.079810 0.399433 1.445753 55 66 86
-0.071660 0.398230 1.441397 51 62 84
-0.063557 0.397018 1.437011 51 58 83
-0.055593 0.396450 1.434954 50 60 84
-0.047709 0.396365 1.434647 47 58 80
-0.039783 0.395830 1.432710 47 58 80
-0.031859 0.395050 1.429889 42 52 76
-0.024026 0.395275 1.430701 41 48 75
-0.016209 0.396075 1.433596 41 50 77
-0.008334 0.395684 1.432183 48 52 81
-0.000476 0.396244 1.434208 48 50 80
0.007400 0.396566 1.435374 43 47 75
0.015311 0.397480 1.438685 40 47 72
0.023243 0.398126 1.441023 46 53 72
0.031316 0.400256 1.448732 52 58 77
0.039520 0.402846 1.458106 60 61 82
0.047803 0.405238 1.466763 68 67 87
0.056488 0.409861 1.483495 72 71 91
0.066051 0.418885 1.516159 73 81 104
0.077317 0.435480 1.576224 24 50 74
-0.097868 0.416700 1.478879 0 0 0
-0.088283 0.409875 1.454658 55 63 86
-0.079804 0.407337 1.445648 57 68 90
-0.071664 0.406157 1.441461 51 61 85
-0.063611 0.405245 1.438225 58 63 88
-0.055507 0.403701 1.432744 53 62 82
-0.047668 0.403889 1.433413 57 65 88
-0.039811 0.403972 1.433708 49 60 82
-0.031863 0.402947 1.430069 47 55 78
-0.024043 0.403413 1.431723 47 56 83
-0.016212 0.404032 1.433918 43 51 80
-0.008338 0.403712 1.432785 46 53 80
-0.000476 0.403966 1.433685 39 46 71
0.007402 0.404589 1.435895 40 47 72
0.015318 0.405564 1.439358 40 44 72
0.023263 0.406383 1.442262 42 47 68
0.031397 0.409255 1.452455 58 59 79
0.039478 0.410412 1.456562 53 54 75
0.047909 0.414201 1.470009 61 59 81
0.056531 0.418315 1.484610 84 83 103
0.065970 0.426676 1.514284 75 81 104
0.076119 0.437249 1.551808 32 49 75
-0.097986 0.425326 1.480660 0 0 0
-0.088400 0.418407 1.456573 55 63 86
-0.079797 0.415231 1.445517 45 55 79
-0.071647 0.413970 1.441124 53 62 89
-0.063573 0.412890 1.437366 44 53 80
-0.055492 0.411452 1.432361 52 59 84
-0.047644 0.411549 1.432696 51 56 81
-0.039769 0.411413 1.432225 52 59 86
-0.031880 0.411015 1.430837 47 51 79
