ply
format ascii 1.0
element vertex 1309
property float x
property float y
property float z
property uchar red
property uchar green
property uchar blue
end_header
0.224577 0.035937 1.954586 103 88 102
0.233864 0.035718 1.942640 89 72 86
0.243964 0.035636 1.938200 86 69 82
0.256380 0.035885 1.951754 70 57 73
0.270343 0.036322 1.975528 70 54 72
-0.378778 0.047004 1.968895 80 65 79
-0.367793 0.046981 1.967925 83 58 78
-0.356509 0.046917 1.965246 78 55 70
-0.346240 0.046987 1.968174 68 45 60
-0.336821 0.047180 1.976272 72 46 62
-0.329311 0.047663 1.996485 125 100 114
-0.185425 0.050232 2.104094 112 73 75
-0.173557 0.050139 2.100194 110 68 79
-0.161320 0.049918 2.090945 94 55 71
-0.149620 0.049842 2.087781 81 52 67
-0.138034 0.049795 2.085818 77 54 62
-0.126414 0.049727 2.082947 69 49 54
-0.114961 0.049717 2.082516 59 41 48
-0.103599 0.049748 2.083825 51 34 47
-0.092026 0.049672 2.080670 50 36 48
-0.080575 0.049652 2.079791 49 35 46
-0.068912 0.049472 2.072255 38 28 34
-0.057368 0.049323 2.066027 35 28 31
-0.046063 0.049356 2.067409 35 30 31
-0.034714 0.049350 2.067142 23 18 19
-0.023349 0.049302 2.065156 32 27 29
-0.012032 0.049361 2.067604 29 23 28
-0.000687 0.049439 2.070899 21 15 20
0.010694 0.049525 2.074480 20 17 19
0.022123 0.049628 2.078820 32 27 29
0.033514 0.049605 2.077832 39 34 36
0.044907 0.049596 2.077450 52 39 47
0.056289 0.049580 2.076796 63 47 58
0.067673 0.049572 2.076441 70 53 64
0.079083 0.049582 2.076872 73 52 67
0.090692 0.049699 2.081778 78 55 70
0.102525 0.049898 2.090126 89 63 79
0.114875 0.050284 2.106291 94 72 84
0.127643 0.050765 2.126447 99 87 93
0.141743 0.051652 2.163573 255 250 255
0.216765 0.047298 1.981212 98 86 98
0.223695 0.046479 1.946914 87 70 84
0.233188 0.046243 1.937029 77 62 70
0.243593 0.046201 1.935253 79 64 72
0.255084 0.046359 1.941891 73 59 70
0.269093 0.046944 1.966399 76 59 72
-0.379079 0.057854 1.970459 74 57 71
-0.367315 0.057704 1.965370 77 58 73
-0.355155 0.057481 1.957786 68 50 67
-0.345526 0.057667 1.964116 53 36 49
-0.335434 0.057785 1.968135 54 35 50
-0.327345 0.058268 1.984569 67 49 62
-0.185568 0.061825 2.105716 111 75 81
-0.172891 0.061426 2.092133 97 62 72
-0.161053 0.061290 2.087494 96 60 74
-0.149402 0.061209 2.084745 79 51 57
-0.137852 0.061160 2.083067 77 52 62
-0.126186 0.061046 2.079187 66 45 54
-0.114888 0.061105 2.081196 54 37 48
-0.103771 0.061283 2.087270 51 38 46
-0.092197 0.061203 2.084548 36 29 36
-0.080675 0.061139 2.082366 38 32 37
-0.069097 0.061005 2.077810 33 27 32
-0.057468 0.060765 2.069620 31 25 30
-0.046078 0.060720 2.068102 31 25 30
-0.034679 0.060632 2.065077 23 18 19
-0.023359 0.060661 2.066066 20 16 15
-0.012030 0.060698 2.067345 22 17 18
-0.000687 0.060785 2.070306 22 16 21
0.010704 0.060966 2.076458 29 22 25
0.022108 0.060994 2.077418 31 27 26
0.033578 0.061123 2.081806 36 30 31
0.044963 0.061071 2.080043 51 39 45
0.056260 0.060945 2.075755 61 44 53
0.067550 0.060855 2.072688 72 53 62
0.079048 0.060951 2.075947 68 50 63
0.090539 0.061019 2.078264 75 57 70
0.102503 0.061354 2.089679 83 63 75
0.114438 0.061606 2.098272 91 71 84
0.127388 0.062309 2.122210 90 76 87
0.141158 0.063261 2.154649 187 182 184
0.215513 0.057833 1.969768 76 65 75
0.223056 0.056999 1.941346 75 57 70
0.232972 0.056819 1.935230 63 46 55
0.242954 0.056671 1.930172 73 59 65
0.254498 0.056884 1.937429 70 56 67
0.267317 0.057353 1.953415 75 62 78
-0.379659 0.068771 1.973474 78 62 79
-0.366470 0.068331 1.960845 78 59 76
-0.355316 0.068255 1.958669 65 46 61
-0.346339 0.068606 1.968735 42 26 37
-0.336109 0.068723 1.972093 59 43 54
-0.326344 0.068946 1.978499 54 38 49
-0.185324 0.073282 2.102945 100 67 81
-0.172783 0.072860 2.090827 89 58 73
-0.160606 0.072542 2.081694 74 47 63
-0.148933 0.072420 2.078201 72 49 63
-0.137609 0.072462 2.079402 67 45 57
-0.126099 0.072404 2.077744 62 40 52
-0.114828 0.072487 2.080108 55 37 50
-0.103690 0.072680 2.085649 55 40 48
-0.092464 0.072852 2.090582 36 30 35
-0.080876 0.072746 2.087559 33 29 34
-0.069411 0.072735 2.087243 25 22 24
-0.057678 0.072384 2.077166 19 14 16
-0.046073 0.072061 2.067883 23 17 22
-0.034651 0.071904 2.063392 29 23 28
-0.023345 0.071952 2.064758 34 29 31
-0.012060 0.072224 2.072570 21 18 20
-0.000691 0.072578 2.082740 20 14 19
0.010750 0.072667 2.085286 21 16 17
0.022185 0.072643 2.084587 26 21 22
0.033578 0.072546 2.081820 41 29 35
0.044979 0.072510 2.080768 57 43 49
0.056305 0.072393 2.077415 63 46 55
0.067606 0.072288 2.074406 68 49 58
0.079071 0.072363 2.076554 68 52 59
0.090465 0.072363 2.076550 73 57 64
0.102215 0.072616 2.083808 74 58 69
0.114124 0.072919 2.092524 86 64 82
0.126993 0.073724 2.115620 82 65 79
0.141511 0.075272 2.160028 97 92 94
0.214625 0.068359 1.961650 250 243 248
0.222939 0.067616 1.940330 64 51 59
0.233823 0.067684 1.942301 52 36 47
0.243094 0.067300 1.931284 71 55 66
0.254323 0.067468 1.936093 73 57 68
0.267340 0.068078 1.953587 65 54 64
0.283991 0.069530 1.995259 48 30 29
-0.378362 0.079327 1.966733 81 60 82
-0.366022 0.078993 1.958452 68 42 65
-0.355476 0.079038 1.959553 59 40 57
-0.347471 0.079668 1.975173 42 29 43
-0.336687 0.079681 1.975487 59 45 56
-0.326094 0.079741 1.976981 61 46 54
-0.184945 0.084648 2.098647 90 65 75
-0.172271 0.084083 2.084631 79 55 67
-0.160331 0.083821 2.078133 75 53 65
-0.148754 0.083723 2.075708 67 51 58
-0.137537 0.083828 2.078304 60 46 52
-0.126141 0.083833 2.078447 57 40 51
-0.114846 0.083913 2.080419 57 39 52
-0.103575 0.084030 2.083330 51 35 46
-0.092539 0.084391 2.092274 37 26 34
-0.081087 0.084421 2.093010 24 18 23
-0.069458 0.084246 2.088667 27 21 26
-0.057885 0.084083 2.084623 22 16 21
-0.046006 0.083285 2.064841 33 26 33
-0.034587 0.083073 2.059584 38 30 41
-0.023281 0.083056 2.059164 33 25 36
-0.012070 0.083660 2.074159 24 17 24
-0.000693 0.084163 2.086624 17 11 16
0.010766 0.084232 2.088337 21 16 17
0.022209 0.084171 2.086828 30 19 22
0.033621 0.084077 2.084481 49 35 41
0.045054 0.084067 2.084249 52 36 43
0.056368 0.083886 2.079740 60 45 53
0.067670 0.083749 2.076345 61 46 54
0.079021 0.083705 2.075260 66 49 60
0.090369 0.083668 2.074343 73 53 66
0.102050 0.083914 2.080436 74 57 71
0.113903 0.084238 2.088470 73 56 70
0.126447 0.084966 2.106522 81 67 79
0.141107 0.086876 2.153870 67 61 66
0.214236 0.078979 1.958098 162 155 160
0.223104 0.078320 1.941765 65 57 64
0.235087 0.078766 1.952801 96 85 93
0.243118 0.077905 1.931477 64 53 63
0.254601 0.078177 1.938216 54 40 52
0.267702 0.078904 1.956228 48 41 46
0.281731 0.079838 1.979383 44 33 29
-0.377948 0.090021 1.964581 70 50 69
-0.365496 0.089611 1.955636 64 44 63
-0.355440 0.089781 1.959355 51 37 55
-0.351864 0.091650 2.000139 75 65 78
-0.337103 0.090632 1.977928 62 48 60
-0.325908 0.090537 1.975854 56 39 50
-0.184445 0.095904 2.092973 84 60 70
-0.172182 0.095472 2.083557 76 56 68
-0.160419 0.095276 2.079268 72 51 66
-0.148843 0.095169 2.076940 63 47 58
-0.137445 0.095168 2.076921 58 43 51
-0.126125 0.095226 2.078182 53 37 48
-0.115004 0.095460 2.083297 50 33 47
-0.103784 0.095654 2.087533 44 27 40
-0.092492 0.095823 2.091221 48 31 45
-0.081059 0.095873 2.092300 34 23 33
-0.069538 0.095817 2.091088 19 12 17
-0.057885 0.095521 2.084611 28 22 27
-0.046172 0.094957 2.072318 24 18 29
-0.034580 0.094355 2.059175 39 30 43
-0.023256 0.094254 2.056964 36 27 40
-0.012076 0.095093 2.075277 26 18 28
-0.000695 0.095862 2.092052 21 15 20
0.010792 0.095923 2.093401 18 13 15
0.022231 0.095718 2.088926 38 24 28
0.033632 0.095546 2.085166 51 37 41
0.045019 0.095430 2.082633 54 42 48
0.056330 0.095233 2.078330 60 48 54
0.067621 0.095073 2.074844 57 41 52
0.078935 0.094988 2.072987 67 44 58
0.090278 0.094955 2.072269 66 45 60
0.101754 0.095053 2.074408 75 58 72
0.113980 0.095762 2.089882 66 54 66
0.126518 0.096579 2.107713 70 62 69
0.141154 0.098727 2.154584 64 59 61
0.213589 0.089453 1.952188 74 63 73
0.223032 0.088947 1.941141 61 44 58
0.234989 0.089443 1.951985 97 79 96
0.242952 0.088443 1.930156 65 54 70
0.255294 0.089054 1.943487 53 39 51
0.269260 0.090160 1.967619 43 29 33
-0.365993 0.100478 1.958297 71 52 71
-0.355016 0.100412 1.957019 59 43 61
-0.350890 0.102341 1.994604 55 36 75
-0.337290 0.101542 1.979025 59 38 63
-0.325338 0.101202 1.972401 50 33 42
-0.318957 0.102631 2.000253 60 44 55
-0.196263 0.107571 2.096544 75 54 62
-0.184304 0.107306 2.091373 81 60 69
-0.171766 0.106646 2.078514 67 46 61
-0.160232 0.106561 2.076845 64 41 56
-0.148769 0.106512 2.075905 60 43 56
-0.137555 0.106650 2.078587 55 40 48
-0.126221 0.106710 2.079766 53 38 46
-0.114959 0.106850 2.082476 45 34 42
-0.103821 0.107147 2.088274 44 33 43
-0.092627 0.107455 2.094274 37 24 38
-0.081134 0.107453 2.094238 34 22 34
-0.069739 0.107600 2.097111 22 15 22
-0.057880 0.106951 2.084453 28 22 27
-0.046124 0.106217 2.070143 21 13 23
-0.034578 0.105647 2.059040 30 22 32
-0.023254 0.105531 2.056783 30 22 33
-0.012098 0.106676 2.079089 20 16 22
-0.000696 0.107500 2.095158 18 14 19
0.010811 0.107601 2.097127 22 15 20
0.022258 0.107310 2.091450 38 25 33
0.033706 0.107222 2.089734 45 36 46
0.045017 0.106852 2.082525 45 34 44
0.056210 0.106410 2.073905 61 45 56
0.067605 0.106433 2.074357 57 40 51
0.078946 0.106378 2.073291 64 47 58
0.090343 0.106402 2.073746 62 45 56
0.101916 0.106605 2.077710 66 50 61
0.113802 0.107062 2.086612 62 48 60
0.126681 0.108284 2.110433 70 62 72
0.141258 0.110631 2.156173 90 84 89
0.213634 0.100186 1.952599 55 42 56
0.224087 0.100069 1.950323 61 41 64
0.235573 0.100403 1.956838 66 50 73
0.243107 0.099097 1.931386 70 51 70
0.255698 0.099876 1.946563 53 36 50
0.270187 0.101304 1.974387 46 29 33
-0.366410 0.111350 1.960523 69 55 73
-0.355474 0.111294 1.959542 65 46 67
-0.348532 0.112524 1.981199 76 52 82
-0.338401 0.112771 1.985543 57 34 62
-0.325741 0.112163 1.974841 62 40 65
-0.317130 0.112956 1.988796 94 75 90
-0.195696 0.118731 2.090481 70 51 60
-0.183951 0.118554 2.087364 73 53 65
-0.171658 0.117977 2.077209 69 52 63
-0.159953 0.117751 2.073233 64 47 58
-0.148638 0.117800 2.074086 65 49 60
-0.137302 0.117838 2.074760 57 41 52
-0.126045 0.117958 2.076865 53 39 45
-0.114944 0.118261 2.082204 48 34 40
-0.103694 0.118461 2.085726 45 35 41
-0.092514 0.118800 2.091702 35 25 31
-0.081111 0.118909 2.093623 34 25 28
-0.069708 0.119055 2.096191 26 21 23
-0.057890 0.118409 2.084816 32 27 29
-0.046269 0.117947 2.076685 23 17 22
-0.034678 0.117282 2.064970 28 22 27
-0.023201 0.116550 2.052088 27 21 26
-0.012048 0.117592 2.070429 22 18 23
-0.000694 0.118754 2.090886 15 12 14
0.010809 0.119084 2.096690 23 16 19
0.022256 0.118778 2.091306 35 20 28
0.033659 0.118525 2.086846 42 28 40
0.044925 0.118038 2.078274 44 32 44
0.056251 0.117875 2.075416 53 44 54
0.067600 0.117806 2.074200 55 42 50
0.078800 0.117536 2.069450 55 40 48
0.090194 0.117587 2.070333 64 48 59
0.101752 0.117816 2.074370 65 48 62
0.113694 0.118399 2.084637 66 49 63
0.126309 0.119512 2.104233 62 48 66
0.140331 0.121658 2.142019 78 74 79
0.214775 0.111492 1.963027 63 53 65
0.224458 0.110954 1.953555 57 43 61
0.234268 0.110525 1.945995 100 83 104
0.243747 0.109984 1.936472 60 42 59
0.257309 0.111254 1.958828 49 36 44
-0.354916 0.121855 1.956466 57 42 56
-0.345035 0.122157 1.961321 58 38 57
-0.336630 0.123019 1.975152 82 59 87
-0.326552 0.123306 1.979760 73 46 72
-0.195619 0.130151 2.089664 68 51 65
-0.183751 0.129867 2.085102 72 53 68
-0.171678 0.129390 2.077449 71 51 64
-0.159787 0.128993 2.071084 67 48 57
-0.148714 0.129246 2.075141 59 45 51
-0.137422 0.129335 2.076570 53 38 46
-0.126287 0.129601 2.080841 53 38 46
-0.114980 0.129726 2.082850 45 30 38
-0.103740 0.129964 2.086660 41 29 35
-0.092536 0.130309 2.092204 41 32 35
-0.081207 0.130551 2.096098 34 22 28
-0.069728 0.130595 2.096798 26 19 22
-0.058005 0.130107 2.088968 30 25 27
-0.046310 0.129456 2.078505 19 16 18
-0.034695 0.128678 2.066022 29 23 28
-0.023197 0.127784 2.051668 26 20 25
-0.012038 0.128848 2.068752 30 23 30
-0.000696 0.130614 2.097105 19 16 18
0.010813 0.130635 2.097440 29 24 25
0.022268 0.130320 2.092388 34 23 26
0.033654 0.129954 2.086512 46 32 38
0.044954 0.129524 2.079600 48 38 44
0.056297 0.129369 2.077110 50 39 47
0.067621 0.129228 2.074847 56 43 51
0.078856 0.128983 2.070912 57 41 52
0.090109 0.128826 2.068388 61 44 55
0.101629 0.129042 2.071868 64 47 60
0.113476 0.129589 2.080639 63 46 60
0.125928 0.130663 2.097883 62 50 62
0.140149 0.133238 2.139236 68 65 67
0.215329 0.122578 1.968086 70 59 69
0.223945 0.121395 1.949085 68 54 65
0.234678 0.121415 1.949404 50 39 49
0.247276 0.122356 1.964511 34 28 33
-0.195510 0.141537 2.088490 71 54 68
-0.183441 0.141069 2.081578 66 49 63
-0.171548 0.140683 2.075883 64 46 59
-0.159892 0.140450 2.072445 64 45 54
-0.148557 0.140484 2.072952 61 47 53
-0.137256 0.140559 2.074059 57 43 49
-0.126070 0.140777 2.077264 56 43 51
-0.114991 0.141169 2.083050 38 31 36
-0.103731 0.141401 2.086477 40 35 37
-0.092510 0.141750 2.091626 37 30 33
-0.081430 0.142444 2.101867 35 28 33
-0.069989 0.142633 2.104651 28 23 25
-0.058313 0.142321 2.100049 21 16 17
-0.046486 0.141397 2.086424 22 17 18
-0.034785 0.140375 2.071338 27 21 26
-0.023266 0.139457 2.057798 23 17 22
-0.012043 0.140260 2.069636 22 18 23
-0.000697 0.142387 2.101019 23 22 26
0.010817 0.142198 2.098235 24 17 22
0.022288 0.141933 2.094324 35 23 29
0.033677 0.141501 2.087946 43 31 37
0.045029 0.141172 2.083098 48 36 42
0.056302 0.140779 2.077293 50 36 42
0.067602 0.140574 2.074276 59 45 51
0.078856 0.140346 2.070916 59 46 54
0.090188 0.140297 2.070191 60 43 56
0.101741 0.140565 2.074138 62 44 57
0.113498 0.141033 2.081040 59 42 56
0.125754 0.141977 2.094976 60 48 60
0.139611 0.144421 2.131033 57 53 59
-0.195965 0.153353 2.093352 65 48 62
-0.183647 0.152662 2.083920 66 49 62
-0.171601 0.152121 2.076525 65 49 60
-0.159887 0.151816 2.072371 64 50 56
-0.148621 0.151924 2.073844 60 44 51
-0.137323 0.152014 2.075074 54 37 46
-0.126170 0.152296 2.078915 50 38 44
-0.114779 0.152317 2.079206 44 34 40
-0.103848 0.153021 2.088821 43 35 42
-0.092797 0.153702 2.098109 39 28 36
-0.081587 0.154273 2.105912 34 22 28
-0.070111 0.154448 2.108301 30 23 28
-0.058568 0.154516 2.109218 16 13 15
-0.047061 0.154735 2.112217 11 9 9
-0.035048 0.152891 2.087035 22 20 20
-0.023345 0.151260 2.064776 19 16 18
-0.012106 0.152410 2.080479 14 13 17
-0.000701 0.154643 2.110963 14 13 17
0.010849 0.154173 2.104539 25 18 23
0.022357 0.153900 2.100810 30 23 28
0.033771 0.153385 2.093789 39 31 38
0.045145 0.152994 2.088443 48 37 45
0.056388 0.152409 2.080455 50 40 46
0.067605 0.151963 2.074368 58 44 50
0.078812 0.151625 2.069765 65 50 58
0.090229 0.151726 2.071139 62 45 56
0.101765 0.151981 2.074625 57 39 52
0.113477 0.152423 2.080657 54 40 52
0.125538 0.153210 2.091391 51 43 53
0.138874 0.155290 2.119781 55 53 59
0.155370 0.160309 2.188301 121 122 120
-0.195503 0.164451 2.088419 63 46 59
-0.183394 0.163871 2.081047 64 47 61
-0.171382 0.163306 2.073871 61 44 57
-0.159631 0.162927 2.069059 59 43 54
-0.148315 0.162967 2.069574 62 43 52
-0.137358 0.163443 2.075609 53 36 45
-0.126127 0.163648 2.078213 55 40 48
-0.114870 0.163856 2.080860 48 35 43
-0.103671 0.164203 2.085268 41 30 40
-0.092687 0.165019 2.095622 37 23 35
-0.081593 0.165841 2.106064 39 25 36
-0.070275 0.166406 2.113237 31 24 29
-0.058915 0.167074 2.121721 24 18 23
-0.047443 0.167676 2.129364 12 8 13
-0.035715 0.167469 2.126739 10 9 11
-0.023623 0.164528 2.089389 10 12 13
-0.012263 0.165947 2.107409 12 15 19
-0.000704 0.166909 2.119630 20 21 25
0.010887 0.166299 2.111887 32 27 29
0.022393 0.165694 2.104196 41 34 39
0.033750 0.164769 2.092454 42 36 41
0.045164 0.164523 2.089332 51 44 49
0.056447 0.163996 2.082633 55 45 51
0.067511 0.163117 2.071473 57 43 49
0.078740 0.162834 2.067879 64 45 54
0.090100 0.162858 2.068179 61 40 55
0.101680 0.163230 2.072906 55 36 51
0.113460 0.163816 2.080347 58 44 56
0.125552 0.164703 2.091619 53 46 53
0.138458 0.166421 2.113431 53 45 55
0.155144 0.172065 2.185108 93 88 90
-0.195543 0.175947 2.088846 66 49 63
-0.183334 0.175233 2.080368 59 40 55
-0.171393 0.174696 2.074001 63 42 57
-0.159822 0.174489 2.071535 56 38 51
-0.148384 0.174404 2.070533 57 39 52
-0.137295 0.174752 2.074658 54 38 49
-0.126214 0.175172 2.079643 46 32 43
-0.115099 0.175624 2.085016 44 33 41
-0.103965 0.176143 2.091179 47 34 42
-0.092918 0.176958 2.100854 38 24 36
-0.081699 0.177629 2.108821 34 19 27
-0.070275 0.178002 2.113244 29 22 27
-0.059038 0.179090 2.126159 26 21 23
-0.047639 0.180099 2.138146 14 11 13
-0.036102 0.181080 2.149793 11 9 9
-0.024258 0.180725 2.145572 14 13 15
-0.012435 0.180001 2.136973 13 18 17
-0.000707 0.179311 2.128783 18 21 25
0.010912 0.178300 2.116785 32 27 29
0.022425 0.177494 2.107214 37 29 36
0.033790 0.176459 2.094933 46 38 45
0.045149 0.175928 2.088625 51 41 47
0.056425 0.175356 2.081831 50 40 46
0.067579 0.174660 2.073571 64 51 59
0.078835 0.174390 2.070359 59 43 54
0.090140 0.174283 2.069096 60 43 54
0.101645 0.174543 2.072185 55 38 51
0.113397 0.175133 2.079188 52 38 49
0.125381 0.175941 2.088776 46 37 47
0.138614 0.178218 2.115808 50 40 52
0.153825 0.182490 2.166531 82 77 79
-0.195670 0.187531 2.090208 65 53 65
-0.183213 0.186524 2.078992 65 50 64
-0.171345 0.186025 2.073424 60 41 56
-0.159751 0.185772 2.070607 61 41 54
-0.148378 0.185759 2.070458 59 41 54
-0.137220 0.186033 2.073517 50 33 46
-0.126149 0.186487 2.078573 45 32 40
-0.115025 0.186945 2.083677 41 31 37
-0.103949 0.187589 2.090863 40 27 35
-0.093004 0.188659 2.102787 46 29 42
-0.081882 0.189623 2.113531 37 23 35
-0.070453 0.190076 2.118577 29 21 28
-0.059252 0.191448 2.133868 26 19 24
-0.047727 0.192188 2.142124 22 17 19
-0.036124 0.192992 2.151081 15 10 11
-0.024379 0.193453 2.156217 25 26 24
-0.012479 0.192394 2.144413 18 21 19
-0.000708 0.191459 2.133993 23 28 26
0.010927 0.190179 2.119722 31 27 32
0.022480 0.189515 2.112328 41 33 40
0.033900 0.188565 2.101736 41 32 42
0.045273 0.187903 2.094354 45 34 42
0.056552 0.187199 2.086511 52 39 47
0.067642 0.186212 2.075511 56 42 53
0.078832 0.185744 2.070296 58 46 52
0.090231 0.185823 2.071175 62 48 54
0.101695 0.186006 2.073214 50 34 45
0.113430 0.186597 2.079797 50 36 48
0.125584 0.187705 2.092151 50 37 51
0.138362 0.189483 2.111967 47 37 50
0.153039 0.193386 2.155466 64 58 63
-0.195873 0.199206 2.092376 63 53 65
-0.183543 0.198289 2.082736 58 45 59
-0.171324 0.197378 2.073176 59 40 55
-0.159677 0.197044 2.069659 55 35 48
-0.148232 0.196925 2.068419 56 39 50
-0.137317 0.197550 2.074980 45 29 40
-0.126372 0.198241 2.082239 44 32 38
-0.115080 0.198473 2.084673 46 35 38
-0.104104 0.199359 2.093981 40 28 34
-0.093118 0.200444 2.105376 40 24 35
-0.081946 0.201378 2.115192 32 21 29
-0.070687 0.202373 2.125637 31 23 30
-0.059276 0.203239 2.134735 26 19 24
-0.047755 0.204062 2.143377 24 18 23
-0.036225 0.205372 2.157134 15 12 14
-0.024434 0.205753 2.161141 16 13 15
-0.012498 0.204479 2.147761 21 18 20
-0.000710 0.203714 2.139719 30 26 31
0.010972 0.202628 2.128314 35 29 34
0.022544 0.201682 2.118375 39 33 38
0.033959 0.200449 2.105431 44 37 42
0.045288 0.199461 2.095047 51 41 47
0.056499 0.198462 2.084555 54 40 46
0.067636 0.197581 2.075304 56 42 48
0.078824 0.197082 2.070068 58 44 48
0.090185 0.197089 2.070132 52 38 44
0.101608 0.197211 2.071424 53 36 49
0.113340 0.197850 2.078135 50 33 47
0.125359 0.198828 2.088407 54 39 53
0.138261 0.200925 2.110432 47 37 50
0.152806 0.204900 2.152183 49 43 48
-0.195483 0.210268 2.088209 57 47 60
-0.183543 0.209717 2.082744 60 46 57
-0.171368 0.208807 2.073704 61 45 56
-0.159771 0.208522 2.070868 53 36 45
-0.148399 0.208509 2.070745 49 35 41
-0.137528 0.209257 2.078170 45 30 38
-0.126504 0.209886 2.084416 45 31 37
-0.115168 0.210072 2.086268 45 32 40
-0.104187 0.211016 2.095641 37 23 34
-0.093167 0.212107 2.106473 35 22 30
-0.082039 0.213226 2.117583 31 24 29
-0.070649 0.213921 2.124490 30 24 29
-0.059339 0.215179 2.136983 30 24 29
-0.047903 0.216490 2.150008 23 16 23
-0.036321 0.217782 2.162838 19 15 20
-0.024464 0.217877 2.163776 9 8 10
-0.012508 0.216442 2.149525 21 18 20
-0.000710 0.215317 2.138356 28 22 27
0.010998 0.214815 2.133371 32 26 31
0.022569 0.213537 2.120681 38 32 37
0.034036 0.212480 2.110175 45 38 43
0.045286 0.210949 2.094974 47 40 45
0.056535 0.210034 2.085892 51 41 47
0.067717 0.209220 2.077801 51 39 45
0.078909 0.208667 2.072311 52 38 44
0.090219 0.208525 2.070904 51 37 43
0.101814 0.209001 2.075632 50 38 44
0.113627 0.209783 2.083399 47 34 42
0.125365 0.210297 2.088497 51 37 49
0.138084 0.212233 2.107725 47 38 48
0.152986 0.216964 2.154712 34 33 37
-0.207851 0.222701 2.097389 56 47 60
-0.195930 0.222233 2.092986 57 44 58
-0.183509 0.221104 2.082352 57 46 56
-0.171284 0.220078 2.072684 58 46 52
-0.160022 0.220231 2.074125 50 36 42
-0.148429 0.219917 2.071169 49 34 42
-0.137510 0.220632 2.077910 48 32 43
-0.126286 0.220943 2.080832 51 36 44
-0.115208 0.221596 2.086988 40 26 37
-0.104303 0.222762 2.097968 39 28 38
-0.093238 0.223836 2.108079 35 27 34
-0.082091 0.224987 2.118919 31 25 30
-0.070959 0.226568 2.133813 29 23 28
-0.059527 0.227624 2.143752 26 20 25
-0.047879 0.228173 2.148927 25 19 24
-0.036241 0.229142 2.158052 25 19 24
-0.024368 0.228846 2.155268 11 5 10
-0.012523 0.228508 2.152083 22 16 21
-0.000712 0.227726 2.144716 30 24 29
0.011013 0.226834 2.136319 33 26 31
0.022572 0.225209 2.121016 40 33 38
0.034070 0.224286 2.112315 41 34 41
0.045466 0.223327 2.103288 48 40 47
0.056631 0.221855 2.089421 50 42 49
0.067828 0.220983 2.081214 48 38 44
0.079034 0.220387 2.075602 48 36 42
0.090299 0.220084 2.072747 51 38 40
0.101787 0.220333 2.075091 48 41 38
0.113554 0.221073 2.082058 46 37 40
0.125528 0.222045 2.091218 44 30 42
0.138050 0.223743 2.107201 49 37 49
0.152951 0.228736 2.154225 43 41 47
-0.207508 0.233823 2.093931 53 37 54
-0.196136 0.233963 2.095186 53 36 50
-0.183650 0.232710 2.083959 60 43 57
-0.171696 0.232008 2.077673 58 40 53
-0.160226 0.231906 2.076764 51 34 48
-0.148781 0.231829 2.076076 49 32 45
-0.137479 0.231982 2.077439 49 32 45
-0.126234 0.232265 2.079978 47 32 40
-0.115303 0.233239 2.088698 43 31 37
-0.104416 0.234528 2.100244 35 25 31
-0.093487 0.236033 2.113719 30 24 29
-0.082302 0.237222 2.124366 26 21 22
-0.071092 0.238721 2.137793 28 23 24
-0.059530 0.239399 2.143864 21 21 21
-0.048011 0.240625 2.154845 25 20 21
-0.036324 0.241537 2.163013 51 40 42
-0.012566 0.241142 2.159473 28 23 20
-0.000712 0.239647 2.146081 29 22 27
0.011013 0.238566 2.136406 30 24 29
0.022608 0.237221 2.124361 35 28 35
0.034120 0.236222 2.115410 41 33 40
0.045545 0.235280 2.106981 48 37 45
0.056765 0.233873 2.094379 50 39 49
0.067898 0.232641 2.083344 45 34 44
0.079085 0.231925 2.076936 51 36 44
0.090377 0.231657 2.074534 46 31 39
0.101767 0.231673 2.074677 51 38 40
0.113727 0.232853 2.085238 42 33 36
0.125581 0.233619 2.092104 44 37 42
0.138235 0.235620 2.110023 42 36 41
0.151957 0.238993 2.140224 37 36 38
-0.206951 0.244653 2.088301 50 39 49
-0.195664 0.244869 2.090142 58 44 55
-0.183792 0.244333 2.085563 56 40 51
-0.171887 0.243679 2.079982 56 39 53
-0.160113 0.243131 2.075306 51 30 45
-0.148627 0.242969 2.073928 49 29 41
-0.137445 0.243320 2.076918 52 35 44
-0.126304 0.243813 2.081126 47 33 39
-0.115575 0.245278 2.093636 47 32 40
-0.104668 0.246646 2.105311 41 30 40
-0.093707 0.248212 2.118676 32 24 31
-0.082365 0.249071 2.126006 32 27 29
-0.071085 0.250429 2.137598 24 21 23
-0.059667 0.251740 2.148793 26 23 25
-0.048258 0.253747 2.165923 22 15 20
-0.012597 0.253619 2.164835 50 27 32
-0.000714 0.251940 2.150498 34 22 28
0.011043 0.250956 2.142098 28 27 31
0.022693 0.249815 2.132357 38 31 38
0.034162 0.248131 2.117985 37 29 36
0.045494 0.246560 2.104577 42 36 41
0.056817 0.245588 2.096281 45 38 45
0.067927 0.244178 2.084242 46 40 45
0.079042 0.243188 2.075792 47 40 45
0.090412 0.243136 2.075351 46 34 40
0.101996 0.243604 2.079343 44 32 38
0.113826 0.244506 2.087045 39 27 33
0.125754 0.245436 2.094985 37 30 35
0.138365 0.247431 2.112010 41 35 40
0.151956 0.250735 2.140216 37 36 38
-0.207260 0.256495 2.091423 43 33 39
-0.195933 0.256690 2.093015 50 40 46
-0.183836 0.255838 2.086063 51 44 49
-0.171843 0.255026 2.079449 52 42 48
-0.159871 0.254133 2.072169 56 39 50
-0.148464 0.254071 2.071660 54 35 44
-0.137380 0.254595 2.075935 55 39 46
-0.126267 0.255158 2.080524 45 33 39
-0.115523 0.256651 2.092700 45 34 42
-0.104763 0.258434 2.107234 36 25 35
-0.093658 0.259701 2.117566 33 25 32
-0.082520 0.261228 2.130013 34 29 31
-0.071235 0.262711 2.142112 31 26 28
-0.059831 0.264259 2.154728 24 20 25
-0.048432 0.266592 2.173755 29 21 21
-0.000715 0.264253 2.154678 33 23 29
0.011060 0.263112 2.145380 36 26 32
0.022738 0.262036 2.136604 31 26 28
0.034158 0.259727 2.117780 39 32 37
0.045526 0.258290 2.106062 44 36 43
0.056800 0.257013 2.095652 47 38 48
0.067943 0.255675 2.084739 48 38 44
0.079203 0.255097 2.080023 49 37 43
0.090541 0.254886 2.078306 46 36 42
0.102150 0.255398 2.082477 39 32 35
0.113896 0.256116 2.088332 39 29 35
0.126013 0.257461 2.099300 39 32 37
0.138695 0.259638 2.117049 36 31 33
0.152404 0.263253 2.146528 39 39 39
-0.208649 0.269766 2.105437 42 31 39
-0.196356 0.268753 2.097531 48 36 48
-0.184226 0.267852 2.090493 48 39 49
-0.171917 0.266551 2.080343 49 41 48
-0.160157 0.265979 2.075876 51 38 46
-0.148802 0.266042 2.076371 56 40 51
-0.137423 0.266071 2.076595 54 38 49
-0.126172 0.266373 2.078956 50 33 46
-0.115252 0.267503 2.087773 46 34 46
-0.104667 0.269750 2.105308 35 27 34
-0.093690 0.271415 2.118301 29 22 27
-0.082631 0.273282 2.132879 32 25 28
-0.071219 0.274402 2.141620 29 23 28
-0.059784 0.275864 2.153024 20 16 21
-0.000715 0.276061 2.154567 28 23 25
0.011087 0.275567 2.150709 31 24 27
0.022719 0.273532 2.134828 27 22 24
0.034216 0.271802 2.121326 38 32 37
0.045564 0.270072 2.107823 43 34 44
0.056770 0.268372 2.094557 52 38 50
0.067837 0.266696 2.081471 50 34 45
0.079252 0.266675 2.081311 50 36 42
0.090645 0.266596 2.080695 33 27 28
0.102265 0.267125 2.084825 40 31 34
0.114059 0.267958 2.091327 37 25 31
0.126238 0.269461 2.103051 39 27 33
0.139064 0.271977 2.122687 35 33 33
0.152688 0.275542 2.150517 31 35 30
-0.197337 0.281662 2.108006 44 35 48
-0.184566 0.279838 2.094350 50 42 53
-0.172411 0.278765 2.086325 47 38 48
-0.160646 0.278216 2.082216 44 33 41
-0.148986 0.277778 2.078938 54 39 47
-0.137504 0.277629 2.077819 51 37 43
-0.126192 0.277824 2.079276 37 24 32
-0.115253 0.278963 2.087802 43 29 41
-0.104526 0.280921 2.102454 39 29 35
-0.093643 0.282897 2.117247 29 23 28
-0.082724 0.285303 2.135257 25 19 24
-0.071656 0.287911 2.154769 27 21 26
-0.060157 0.289473 2.166466 26 19 24
0.011086 0.287347 2.150553 28 23 25
0.022765 0.285825 2.139160 30 27 29
0.034315 0.284261 2.127457 39 33 38
0.045575 0.281709 2.108357 44 35 45
0.056780 0.279914 2.094924 49 38 48
0.067922 0.278467 2.084092 51 40 50
0.079205 0.277930 2.080076 47 36 44
0.090620 0.277936 2.080119 32 26 27
0.102380 0.278879 2.087173 36 28 28
0.114205 0.279790 2.093996 33 26 29
0.126524 0.281637 2.107818 29 22 27
0.139568 0.284651 2.130375 36 30 35
0.153390 0.288664 2.160407 37 32 34
-0.197450 0.293398 2.109217 46 37 50
-0.184843 0.291766 2.097489 45 36 49
-0.172225 0.289900 2.084074 45 33 45
-0.160740 0.289811 2.083433 49 38 48
-0.149100 0.289408 2.080535 48 36 42
-0.137423 0.288860 2.076595 46 32 38
-0.126395 0.289699 2.082624 44 31 39
-0.115451 0.290916 2.091379 40 29 39
-0.104597 0.292656 2.103888 32 25 32
-0.093892 0.295296 2.122866 31 25 30
-0.082899 0.297650 2.139788 28 22 27
-0.071801 0.300342 2.159141 25 19 24
-0.060072 0.300933 2.163387 31 22 25
0.011091 0.299266 2.151406 31 22 25
0.022798 0.297994 2.142260 28 24 29
0.034333 0.296094 2.128599 38 32 37
0.045555 0.293145 2.107403 46 38 45
0.056762 0.291315 2.094248 52 36 47
0.067983 0.290161 2.085951 47 31 42
0.079229 0.289432 2.080709 48 35 43
0.090769 0.289825 2.083531 38 27 30
0.102415 0.290430 2.087881 34 26 27
0.114551 0.292164 2.100345 29 24 25
0.126969 0.294233 2.115220 28 24 29
0.139881 0.297006 2.135155 26 23 25
0.154213 0.302131 2.172003 27 24 26
-0.197196 0.304579 2.106503 45 38 45
-0.184878 0.303333 2.097886 42 33 43
-0.172388 0.301621 2.086048 41 32 42
-0.160763 0.301287 2.083736 40 31 41
-0.148881 0.300382 2.077477 40 30 36
-0.137498 0.300418 2.077727 43 31 37
-0.126403 0.301146 2.082765 40 25 33
-0.115455 0.302404 2.091465 39 26 34
-0.104770 0.304705 2.107373 30 23 28
-0.093988 0.307258 2.125033 29 23 28
-0.083140 0.310290 2.146004 26 19 26
-0.071883 0.312544 2.161590 21 17 22
0.022820 0.310036 2.144243 27 26 28
0.034289 0.307379 2.125873 37 30 37
0.045494 0.304304 2.104600 42 31 41
0.056638 0.302146 2.089679 49 35 46
0.068037 0.301850 2.087633 47 33 39
0.079444 0.301664 2.086347 46 32 36
0.091025 0.302108 2.089415 39 31 32
0.102794 0.303005 2.095616 35 27 28
0.114726 0.304152 2.103550 32 27 29
0.127049 0.306032 2.116553 31 28 30
0.140405 0.309878 2.143151 23 26 24
0.155487 0.316644 2.189945 14 17 15
-0.197691 0.316932 2.111795 42 40 46
-0.185176 0.315352 2.101273 37 33 39
-0.172608 0.313467 2.088710 43 35 45
-0.160979 0.313141 2.086536 45 34 44
-0.149054 0.312144 2.079891 40 29 37
-0.137779 0.312456 2.081969 41 28 36
-0.126464 0.312724 2.083760 36 27 30
-0.115461 0.313896 2.091566 42 27 35
-0.104800 0.316358 2.107970 33 23 29
-0.094272 0.319882 2.131452 27 21 26
-0.083451 0.323270 2.154031 21 20 22
-0.072221 0.325931 2.171761 18 28 22
0.022824 0.321866 2.144671 26 25 27
0.034295 0.319098 2.126231 34 30 35
0.045523 0.316054 2.105945 37 29 40
0.056818 0.314612 2.096339 44 33 41
0.068130 0.313730 2.090460 44 33 36
0.079575 0.313632 2.089811 47 36 38
0.091310 0.314556 2.095963 37 31 32
0.103148 0.315587 2.102834 32 22 28
0.115070 0.316642 2.109865 28 22 27
0.127493 0.318757 2.123957 28 28 28
0.141337 0.323772 2.157376 24 27 25
0.157015 0.331889 2.211463 9 14 12
-0.198189 0.329346 2.117112 39 35 40
-0.185636 0.327693 2.106484 38 31 38
-0.173115 0.325882 2.094842 40 29 39
-0.161166 0.324967 2.088958 49 34 48
-0.149112 0.323682 2.080702 43 32 42
-0.137673 0.323630 2.080365 38 31 36
-0.126570 0.324431 2.085513 35 28 31
-0.115445 0.325328 2.091283 34 27 32
-0.104827 0.328011 2.108526 33 26 31
-0.094225 0.331412 2.130389 25 19 24
-0.083741 0.336253 2.161506 17 16 18
-0.072198 0.337739 2.171063 32 36 31
0.022791 0.333145 2.141531 29 24 25
0.034354 0.331340 2.129927 34 30 35
0.045572 0.327962 2.108213 39 33 38
0.056885 0.326498 2.098803 36 30 35
0.068269 0.325865 2.094733 38 31 36
0.079629 0.325317 2.091213 36 29 34
0.091282 0.325955 2.095311 38 31 34
0.103260 0.327479 2.105109 32 25 30
0.115483 0.329396 2.117429 29 23 28
0.127850 0.331335 2.129898 28 22 27
0.141484 0.335960 2.159625 21 23 24
-0.197915 0.340492 2.114189 32 30 36
-0.185770 0.339497 2.108009 34 30 36
-0.173526 0.338178 2.099821 37 33 39
-0.161399 0.336916 2.091980 42 34 44
-0.149380 0.335701 2.084440 42 31 41
-0.137853 0.335484 2.083093 40 30 36
-0.126713 0.336254 2.087871 39 30 33
-0.115660 0.337430 2.095171 34 27 34
-0.105005 0.340156 2.112103 29 23 28
-0.094371 0.343636 2.133707 24 20 25
-0.083923 0.348872 2.166221 26 22 27
-0.072806 0.352597 2.189352 26 21 23
0.022832 0.345520 2.145405 27 22 24
0.034332 0.342800 2.128518 31 30 34
0.045649 0.340106 2.111790 37 33 39
0.056949 0.338392 2.101146 37 31 36
0.068320 0.337611 2.096296 37 30 35
0.079711 0.337141 2.093377 35 25 31
0.091398 0.337881 2.097972 33 23 29
0.103502 0.339827 2.110055 29 22 27
0.115811 0.341985 2.123453 24 18 23
0.128202 0.343968 2.135772 23 19 24
0.142190 0.349545 2.170398 18 20 21
-0.185990 0.351479 2.110503 29 27 33
-0.174119 0.350896 2.106998 33 29 35
-0.161479 0.348567 2.093013 38 31 38
-0.149420 0.347231 2.084994 43 30 38
-0.138163 0.347692 2.087763 42 27 35
-0.126865 0.348127 2.090370 36 26 32
-0.115933 0.349751 2.100124 27 21 26
-0.105136 0.352183 2.114727 27 21 26
-0.094552 0.356023 2.137784 22 21 25
-0.083850 0.360443 2.164323 21 22 26
0.034411 0.355304 2.133466 27 26 30
0.045722 0.352250 2.115133 36 29 36
0.056966 0.350025 2.101771 32 24 34
0.068366 0.349347 2.097702 37 28 38
0.079950 0.349671 2.099644 31 22 32
0.091512 0.349828 2.100589 31 25 30
0.103935 0.352873 2.118870 25 22 24
0.116469 0.355645 2.135516 18 18 18
0.129298 0.358727 2.154025 18 20 20
0.143545 0.364900 2.191086 9 14 12
-0.186316 0.363697 2.114203 24 23 27
-0.174249 0.362727 2.108566 32 28 33
-0.161406 0.359887 2.092060 36 29 36
-0.149363 0.358535 2.084197 38 25 33
-0.138296 0.359496 2.089786 37 24 32
-0.127108 0.360287 2.094382 27 21 26
-0.116429 0.362820 2.109106 24 22 22
-0.105672 0.365642 2.125515 24 21 23
-0.094978 0.369410 2.147414 19 18 22
-0.084298 0.374309 2.175893 25 25 31
0.034508 0.368045 2.139482 27 26 28
0.045923 0.365461 2.124461 30 25 27
0.057216 0.363145 2.110999 34 26 33
0.068532 0.361734 2.102794 35 24 32
0.079977 0.361313 2.100348 31 25 30
0.091703 0.362108 2.104970 26 25 29
0.104180 0.365360 2.123875 22 24 25
0.116908 0.368746 2.143559 16 20 21
0.130611 0.374309 2.175894 10 14 15
-0.187269 0.377217 2.125016 21 23 31
-0.174684 0.375232 2.113834 30 24 35
-0.161645 0.371916 2.095157 35 26 36
-0.149585 0.370521 2.087297 33 25 32
-0.138404 0.371251 2.091408 33 26 31
-0.127388 0.372597 2.098993 28 22 27
-0.116771 0.375491 2.115294 24 21 23
-0.106243 0.379343 2.136993 18 15 17
-0.095553 0.383502 2.160426 18 17 21
-0.085259 0.390650 2.200691 32 35 40
0.034698 0.381871 2.151237 28 24 29
0.046076 0.378373 2.131528 28 21 28
0.057277 0.375133 2.113280 35 27 34
0.068593 0.373609 2.104691 30 24 29
0.079986 0.372880 2.100585 32 28 33
0.091867 0.374326 2.108730 22 18 23
0.104499 0.378169 2.130378 19 15 20
0.117321 0.381852 2.151130 22 18 23
0.131453 0.388740 2.189930 19 16 18
-0.174542 0.386516 2.112114 30 28 34
-0.162164 0.384645 2.101889 29 25 30
-0.150086 0.383253 2.094283 29 23 28
-0.138823 0.383885 2.097736 27 21 26
-0.127941 0.385781 2.108097 23 18 20
-0.117117 0.388244 2.121560 26 23 25
-0.106522 0.392097 2.142612 18 20 21
-0.095714 0.396024 2.164069 13 16 20
-0.084683 0.400006 2.185831 28 33 36
0.034807 0.394914 2.158007 21 18 27
0.046231 0.391378 2.138680 23 17 28
0.057610 0.388976 2.125560 31 27 33
0.068840 0.386542 2.112257 27 23 28
0.080203 0.385449 2.106284 22 19 21
0.092315 0.387781 2.119025 22 20 20
0.104610 0.390272 2.132641 16 12 17
0.117302 0.393594 2.150795 24 18 23
0.132393 0.403621 2.205587 19 14 16
-0.174260 0.397462 2.108699 26 24 24
-0.162441 0.396854 2.105477 23 23 23
-0.150870 0.396808 2.105229 22 21 23
-0.139392 0.397018 2.106348 19 18 22
-0.128512 0.399122 2.117507 19 16 18
-0.117996 0.402889 2.137495 17 16 18
-0.106871 0.405178 2.149639 18 17 19
-0.095741 0.408011 2.164670 16 18 19
-0.084521 0.411215 2.181664 22 27 26
0.035021 0.409252 2.171252 30 22 33
0.046673 0.406970 2.159143 18 15 24
0.057948 0.402988 2.138016 26 23 25
0.069366 0.401175 2.128402 23 21 21
0.080695 0.399443 2.119213 23 21 21
0.092388 0.399721 2.120687 17 12 14
0.104416 0.401227 2.128676 20 15 17
0.117035 0.404471 2.145886 26 23 25
0.131672 0.413458 2.193567 24 24 24
-0.174304 0.409135 2.109229 32 26 31
-0.162611 0.408836 2.107687 26 20 25
-0.151060 0.408872 2.107874 17 17 17
-0.140013 0.410396 2.115731 13 15 16
-0.129215 0.412986 2.129084 13 17 18
-0.118703 0.417101 2.150296 15 14 16
-0.107121 0.417946 2.154654 23 20 22
-0.095766 0.419997 2.165226 25 19 24
-0.084828 0.424718 2.189565 28 31 35
0.035033 0.421316 2.172024 30 23 30
0.046752 0.419522 2.162776 25 20 29
0.058435 0.418208 2.156004 17 16 20
0.069880 0.415914 2.144178 12 11 13
0.080967 0.412460 2.126369 20 15 16
0.092388 0.411359 2.120693 24 19 21
0.104246 0.412234 2.125203 25 18 23
0.116874 0.415673 2.142934 25 19 24
0.131031 0.423425 2.182899 18 20 20
-0.174668 0.421588 2.113636 33 27 32
-0.162732 0.420714 2.109253 30 24 29
-0.151467 0.421572 2.113558 25 22 24
-0.140925 0.424753 2.129505 10 12 12
-0.129841 0.426730 2.139414 10 12 12
-0.118166 0.426960 2.140571 21 18 20
-0.106846 0.428668 2.149133 33 28 30
-0.095954 0.432728 2.169489 24 20 25
-0.084037 0.432662 2.169158 21 24 28
0.034971 0.432467 2.168178 31 25 30
0.046676 0.430693 2.159286 30 26 31
0.058497 0.430489 2.158264 19 18 22
0.070334 0.430457 2.158100 13 14 18
0.081042 0.424518 2.128327 20 19 21
0.092380 0.422960 2.120517 25 20 22
0.104163 0.423558 2.123515 26 20 25
0.116935 0.427656 2.144060 20 16 21
0.131940 0.438421 2.198031 21 22 26
-0.175218 0.434549 2.120287 28 21 28
-0.163245 0.433649 2.115899 26 19 26
-0.151786 0.434082 2.118012 27 23 28
-0.141292 0.437575 2.135052 19 18 20
-0.129787 0.438285 2.138517 21 20 22
-0.117946 0.437890 2.136591 25 20 22
-0.106809 0.440308 2.148389 27 21 26
-0.096091 0.445266 2.172581 22 20 26
0.035078 0.445719 2.174789 27 21 26
0.046797 0.443692 2.164899 27 20 27
0.058611 0.443194 2.162468 23 19 24
0.070338 0.442324 2.158226 22 24 25
0.081507 0.438700 2.140545 22 24 25
0.092857 0.436837 2.131452 19 16 18
0.104472 0.436504 2.129828 23 20 22
0.117342 0.440949 2.151517 14 10 15
0.132141 0.451170 2.201386 20 23 27
-0.175345 0.446507 2.121830 26 20 25
-0.163503 0.445964 2.119246 27 21 26
-0.152358 0.447383 2.125991 23 17 22
-0.141462 0.449832 2.137628 22 18 23
-0.129751 0.449894 2.137923 24 20 25
-0.118275 0.450866 2.142542 28 22 27
-0.107566 0.455301 2.163619 27 20 27
-0.096688 0.460028 2.186080 17 14 23
0.046974 0.457287 2.173054 28 21 28
0.058642 0.455304 2.163632 29 22 29
0.070274 0.453752 2.156258 22 18 23
0.081720 0.451621 2.146128 22 18 23
0.093026 0.449353 2.135351 23 19 24
0.104760 0.449423 2.135684 20 16 21
0.117470 0.453249 2.153866 15 14 16
0.131625 0.461441 2.192795 20 24 25
-0.175792 0.459318 2.127237 28 25 27
-0.163946 0.458833 2.124990 27 24 26
-0.152883 0.460630 2.133315 23 20 22
-0.141650 0.462173 2.140458 26 21 23
-0.130085 0.462815 2.143432 27 23 28
-0.118951 0.465267 2.154792 21 20 24
-0.108203 0.469938 2.176422 16 17 21
0.047112 0.470595 2.179466 30 24 29
0.058916 0.469357 2.173733 29 23 28
0.070533 0.467302 2.164217 28 24 29
0.082183 0.466024 2.158294 26 22 27
0.093396 0.462904 2.143846 22 19 21
0.104922 0.461855 2.138987 20 16 21
0.117477 0.465095 2.153995 19 15 20
0.131609 0.473416 2.192529 16 18 19
-0.175920 0.471334 2.128790 28 24 29
-0.164149 0.471075 2.127621 25 22 24
-0.153482 0.474189 2.141683 25 23 23
-0.141712 0.474124 2.141392 22 19 21
-0.130521 0.476165 2.150611 23 19 24
-0.119771 0.480379 2.169644 25 22 24
-0.108613 0.483708 2.184678 21 21 21
0.059181 0.483446 2.183496 30 24 29
0.070794 0.480951 2.172225 28 24 29
0.082397 0.479112 2.163919 19 16 18
0.093841 0.476929 2.154058 21 20 22
0.105122 0.474496 2.143073 17 14 16
0.117321 0.476281 2.151134 19 16 18
0.131401 0.484679 2.189064 16 15 17
0.147465 0.498374 2.250916 20 25 24
-0.189105 0.486886 2.145851 30 26 31
-0.176594 0.484865 2.136946 28 24 29
-0.164587 0.484036 2.133292 23 22 24
-0.153672 0.486539 2.144322 19 21 22
-0.142302 0.487899 2.150317 24 20 25
-0.131038 0.489899 2.159129 28 21 26
-0.120325 0.494562 2.179681 26 21 23
-0.109398 0.499276 2.200457 24 21 23
0.059373 0.497038 2.190592 26 24 24
0.070941 0.493894 2.176737 28 22 27
0.082583 0.492089 2.168784 29 24 26
0.094198 0.490606 2.162248 20 17 19
0.105714 0.488992 2.155134 18 16 16
0.117984 0.490842 2.163288 17 16 18
0.131602 0.497450 2.192410 13 13 13
0.145461 0.503782 2.220319 34 39 37
-0.189406 0.499454 2.149267 34 28 33
-0.176923 0.497516 2.140926 28 24 29
-0.165395 0.498178 2.143774 21 20 22
-0.154189 0.499983 2.151544 24 20 25
-0.142482 0.500330 2.153037 29 22 29
-0.131348 0.502934 2.164240 27 19 29
-0.120726 0.508208 2.186936 29 22 29
0.059644 0.511381 2.200589 24 22 22
0.071128 0.507167 2.182455 30 24 29
0.082690 0.504648 2.171616 35 29 34
0.094420 0.503656 2.167347 26 20 25
0.106029 0.502313 2.161568 21 17 22
0.118204 0.503652 2.167332 15 14 16
0.131258 0.508147 2.186674 20 20 20
0.145228 0.515142 2.216775 23 26 24
-0.189791 0.512286 2.153634 38 32 37
-0.177282 0.510297 2.145271 30 24 29
-0.165635 0.510679 2.146879 28 22 27
-0.154224 0.511904 2.152027 30 23 28
-0.143163 0.514592 2.163328 27 21 26
-0.131825 0.516679 2.172100 23 19 24
-0.120948 0.521165 2.190962 25 21 27
-0.110227 0.527392 2.217137 30 29 33
0.059634 0.523368 2.200219 30 24 29
0.071350 0.520762 2.189267 29 23 28
0.082916 0.517972 2.177535 29 23 28
0.094615 0.516609 2.171807 27 21 26
0.106319 0.515578 2.167473 26 22 27
0.118533 0.516977 2.173355 16 16 16
0.130682 0.517863 2.177079 21 22 20
0.144643 0.525180 2.207839 21 26 25
0.159651 0.534874 2.248593 16 21 19
-0.189889 0.524377 2.154756 37 30 37
-0.177760 0.523474 2.151049 23 17 22
-0.165863 0.523177 2.149828 26 20 25
-0.154669 0.525226 2.158245 31 26 28
-0.143689 0.528398 2.171279 28 23 25
-0.132196 0.530083 2.178203 23 20 22
-0.120917 0.533051 2.190403 28 24 29
-0.110427 0.540535 2.221152 36 35 39
0.059603 0.535161 2.199072 29 23 28
0.071406 0.533192 2.190980 33 27 32
0.083174 0.531567 2.184304 29 24 26
0.094761 0.529343 2.175162 28 23 24
0.106284 0.527297 2.166758 27 25 24
0.118185 0.527351 2.166977 22 23 21
0.130351 0.528467 2.171566 26 28 28
0.144113 0.535325 2.199746 24 29 27
0.159401 0.546355 2.245069 15 22 17
-0.189965 0.536412 2.155608 34 31 33
-0.177913 0.535739 2.152905 33 30 32
-0.166146 0.535887 2.153498 31 25 30
-0.154890 0.537835 2.161325 28 24 29
-0.143843 0.540888 2.173596 29 24 26
-0.131973 0.541121 2.174530 32 26 31
-0.120797 0.544530 2.188231 29 22 29
-0.110318 0.552177 2.218962 33 31 37
0.059490 0.546192 2.194911 31 24 29
0.071315 0.544523 2.188203 34 29 31
0.083231 0.543931 2.185825 30 25 27
0.094808 0.541545 2.176235 26 24 23
0.106376 0.539652 2.168627 29 27 27
0.118011 0.538445 2.163779 30 24 29
0.130470 0.540875 2.173542 27 21 26
0.143720 0.545905 2.193757 15 20 19
0.158165 0.554343 2.227665 14 20 15
-0.189875 0.547981 2.154590 35 31 36
-0.177962 0.547702 2.153491 38 32 37
-0.166690 0.549499 2.160556 27 21 26
-0.155512 0.551903 2.170009 28 22 27
-0.143939 0.553186 2.175056 30 25 27
-0.132068 0.553450 2.176093 34 28 33
-0.120623 0.555734 2.185073 33 26 33
-0.109712 0.561255 2.206782 31 23 34
0.059452 0.557879 2.193509 32 26 31
0.071307 0.556466 2.187950 33 27 32
0.083236 0.555953 2.185935 30 25 27
0.094924 0.554166 2.178907 31 29 29
0.106320 0.551264 2.167499 32 27 29
0.117956 0.550064 2.162780 39 32 35
0.130438 0.552666 2.173009 29 24 25
0.143586 0.557421 2.191705 16 17 15
0.158464 0.567637 2.231875 12 18 13
-0.201993 0.560625 2.157750 30 26 31
-0.190399 0.561348 2.160532 33 27 32
-0.178485 0.561164 2.159826 31 25 30
-0.167085 0.562685 2.165679 30 22 29
-0.155688 0.564447 2.172461 27 21 26
-0.144064 0.565610 2.176938 31 25 30
-0.132098 0.565523 2.176602 31 25 30
-0.120622 0.567718 2.185051 32 27 29
-0.109688 0.573235 2.206283 31 24 31
0.059474 0.570125 2.194313 36 30 35
0.071251 0.568024 2.186228 31 26 28
0.083305 0.568423 2.187764 28 26 26
0.095228 0.567937 2.185894 30 27 29
0.107130 0.567447 2.184009 31 25 30
0.118427 0.564175 2.171414 32 27 28
0.130415 0.564494 2.172641 29 28 24
0.144018 0.571162 2.198307 15 19 14
0.158604 0.580397 2.233851 14 17 15
-0.190482 0.573455 2.161485 35 30 32
-0.178477 0.572988 2.159725 34 28 33
-0.167018 0.574337 2.164808 31 25 30
-0.156063 0.577755 2.177691 30 24 29
-0.144023 0.577391 2.176317 32 26 31
-0.131992 0.576999 2.174840 35 29 34
-0.120786 0.580497 2.188026 31 24 29
-0.110083 0.587452 2.214242 30 23 30
0.059683 0.584211 2.202026 28 25 27
0.071358 0.580890 2.189508 31 27 32
0.083355 0.580773 2.189066 32 28 33
0.095217 0.579862 2.185633 32 26 31
0.107058 0.579043 2.182546 30 25 27
0.118406 0.575985 2.171021 31 30 26
0.130420 0.576435 2.172715 23 25 19
0.143603 0.581541 2.191962 19 20 16
0.158239 0.591288 2.228699 12 13 9
-0.190920 0.586659 2.166447 32 25 30
-0.178723 0.585645 2.162699 34 27 32
-0.167245 0.587011 2.167746 31 23 30
-0.156184 0.590163 2.179385 31 27 32
-0.143999 0.589234 2.175956 31 26 28
-0.132254 0.590103 2.179165 31 26 27
-0.121148 0.594282 2.194596 24 19 21
-0.110200 0.600240 2.216597 17 14 23
0.059931 0.598773 2.211180 29 28 30
0.071632 0.595187 2.197939 29 22 29
0.083489 0.593742 2.192602 32 26 31
0.095272 0.592199 2.186903 29 23 28
0.106992 0.590655 2.181203 31 26 27
0.118417 0.587952 2.171222 29 25 24
0.130639 0.589343 2.176358 25 21 20
0.143589 0.593511 2.191749 19 17 16
0.158682 0.605208 2.234946 0 0 0
-0.191280 0.599675 2.170531 29 23 28
-0.178990 0.598405 2.165934 31 24 31
-0.167596 0.600164 2.172299 24 17 24
-0.156418 0.603024 2.182650 28 22 27
-0.144140 0.601765 2.178094 27 22 24
-0.132692 0.604053 2.186377 32 25 30
-0.121660 0.608885 2.203867 25 21 26
-0.110354 0.613258 2.219695 24 23 27
0.060115 0.612785 2.217980 25 21 26
0.071672 0.607582 2.199149 30 24 29
0.083532 0.606082 2.193720 31 26 27
0.095569 0.606081 2.193718 31 26 28
0.107365 0.604720 2.188790 33 26 31
0.118903 0.602330 2.180139 30 23 26
0.130840 0.602211 2.179711 26 22 21
0.143871 0.606728 2.196060 16 17 15
0.157804 0.614055 2.222579 11 12 10
-0.191805 0.613266 2.176498 28 22 27
-0.179625 0.612455 2.173617 23 17 22
-0.168077 0.613841 2.178537 23 17 22
-0.156154 0.613960 2.178959 29 23 28
-0.144292 0.614362 2.180385 32 27 29
-0.132656 0.615885 2.185791 30 26 31
-0.121924 0.622325 2.208646 24 25 29
-0.111044 0.629345 2.233563 16 19 23
0.060379 0.627692 2.227696 28 23 24
0.071850 0.621187 2.204607 29 24 25
0.083718 0.619492 2.198592 32 27 28
0.095700 0.618966 2.196726 28 23 25
0.107494 0.617471 2.191421 31 26 28
0.119147 0.615556 2.184622 29 26 22
0.130840 0.614171 2.179706 22 19 15
0.143887 0.618847 2.196304 15 13 12
0.157778 0.626147 2.222211 12 13 11
-0.192316 0.626873 2.182290 32 25 32
-0.180053 0.625870 2.178799 27 23 28
-0.168437 0.627132 2.183193 25 22 24
-0.156786 0.628450 2.187780 27 21 26
-0.144554 0.627461 2.184339 27 22 24
-0.132856 0.628827 2.189092 26 25 29
-0.122451 0.637186 2.218190 23 23 29
0.071917 0.633877 2.206671 27 24 26
0.083864 0.632662 2.202441 27 21 26
0.095784 0.631574 2.198655 33 27 32
0.107544 0.629788 2.192440 30 24 29
0.119207 0.627858 2.185718 26 21 23
0.131143 0.627584 2.184765 24 19 21
0.144286 0.632648 2.202393 17 12 13
0.158520 0.641342 2.232661 18 15 11
-0.192534 0.639573 2.184767 29 23 28
-0.179835 0.637052 2.176156 30 23 30
-0.168282 0.638525 2.181187 25 18 23
-0.156833 0.640645 2.188429 27 20 23
-0.144785 0.640472 2.187838 28 21 26
-0.133033 0.641688 2.191995 29 28 32
-0.122858 0.651516 2.225567 17 20 24
0.072146 0.648044 2.213704 26 21 23
0.083889 0.644936 2.203088 29 24 26
0.095988 0.645007 2.203332 30 23 28
0.107803 0.643369 2.197737 29 18 26
0.119432 0.641056 2.189835 29 18 26
0.131273 0.640207 2.186933 25 20 22
0.144628 0.646262 2.207618 15 11 10
0.159378 0.657131 2.244745 20 13 10
-0.193492 0.654802 2.195635 26 19 26
-0.180638 0.651893 2.185881 28 20 27
-0.168697 0.652096 2.186564 26 19 24
-0.156987 0.653296 2.190584 22 15 20
-0.144799 0.652540 2.188049 23 19 24
-0.133246 0.654763 2.195506 22 23 27
-0.123030 0.664655 2.228674 15 19 20
0.072388 0.662402 2.221119 30 26 25
0.084062 0.658378 2.207626 28 24 23
0.096144 0.658167 2.206920 28 23 25
0.107783 0.655305 2.197324 31 23 30
0.119446 0.653152 2.190104 31 20 28
0.131430 0.652984 2.189541 21 16 18
0.144673 0.658579 2.208300 11 9 8
0.160193 0.672869 2.256218 22 12 12
-0.194149 0.669114 2.203090 24 18 23
-0.180803 0.664492 2.187874 26 19 24
-0.168906 0.664920 2.189281 27 19 26
-0.157456 0.667303 2.197127 23 17 22
-0.145353 0.667089 2.196424 19 21 21
-0.133684 0.669005 2.202733 24 23 25
-0.123647 0.680282 2.239863 25 19 20
0.072642 0.676957 2.228914 26 21 22
0.084328 0.672620 2.214635 23 21 21
0.096402 0.672073 2.212832 25 22 24
0.107862 0.667853 2.198938 29 23 28
0.119566 0.665834 2.192291 25 19 24
0.131655 0.666138 2.193291 20 18 18
0.145130 0.672815 2.215278 13 14 10
-0.195089 0.684499 2.213752 25 18 23
-0.181493 0.679080 2.196227 25 21 26
-0.169381 0.678834 2.195432 23 19 24
-0.157619 0.680064 2.199408 23 19 24
-0.145688 0.680703 2.201476 20 19 21
-0.134232 0.683881 2.211752 24 21 23
-0.123350 0.690908 2.234479 34 23 25
0.073039 0.692952 2.241091 24 16 16
0.084424 0.685546 2.217139 25 21 26
0.096357 0.683898 2.211809 20 16 21
0.108105 0.681445 2.203876 26 20 25
0.119800 0.679193 2.196592 24 18 23
0.132125 0.680592 2.201117 14 12 12
0.145605 0.687213 2.222528 10 9 5
-0.195967 0.699784 2.223723 25 19 24
-0.181961 0.692913 2.201888 24 20 25
-0.169295 0.690529 2.194313 25 19 24
-0.157796 0.692908 2.201872 20 14 19
-0.146234 0.695382 2.209736 24 18 23
-0.134805 0.698991 2.221203 19 15 20
-0.123567 0.704405 2.238406 34 23 26
0.084622 0.699348 2.222337 22 17 18
0.096599 0.697784 2.217366 23 17 22
0.108221 0.694282 2.206240 25 21 26
0.119951 0.692118 2.199362 21 18 20
0.132412 0.694175 2.205900 17 15 15
0.145414 0.698488 2.219604 13 12 8
