# .PCD v0.7 - Point Cloud Data file format
VERSION 0.7
FIELDS x y z
SIZE 4 4 4
TYPE F F F
COUNT 1 1 1
WIDTH 1771
HEIGHT 1
VIEWPOINT 0 0 0 1 0 0 0
POINTS 1771
DATA ascii
0.766730 0.647135 1.398175
0.785408 0.656331 1.418046
0.788596 0.652531 1.409835
0.793353 0.650090 1.404560
0.800568 0.649691 1.403699
0.796550 0.640270 1.383344
0.814100 0.648200 1.400477
0.826679 0.652061 1.408818
0.837422 0.654415 1.413906
0.829510 0.642282 1.387691
0.852377 0.653984 1.412974
0.871762 0.662828 1.432083
0.864100 0.651133 1.406814
0.868641 0.648759 1.401685
0.875392 0.648063 1.400182
0.882999 0.648007 1.400061
0.879046 0.639543 1.381773
0.899517 0.648839 1.401858
0.893838 0.639276 1.381197
0.910996 0.646070 1.395875
0.919252 0.635886 1.373873
0.948552 0.645566 1.394786
0.360649 0.880998 1.881152
0.364465 0.865548 1.848161
0.365573 0.844676 1.803594
0.363365 0.817446 1.745451
0.365340 0.800783 1.709872
0.370035 0.790766 1.688482
0.372307 0.776187 1.657352
0.373492 0.760092 1.622985
0.376648 0.748664 1.598584
0.374812 0.728058 1.554586
0.368579 0.700020 1.494717
0.370502 0.688353 1.469806
0.377721 0.686815 1.466522
0.384683 0.684884 1.462398
0.389276 0.678900 1.449620
0.396662 0.677929 1.447547
0.402593 0.674557 1.440348
0.409429 0.672804 1.436604
0.415613 0.670065 1.430756
0.423222 0.669682 1.429939
0.429438 0.667150 1.424531
0.436088 0.665370 1.420731
0.440717 0.660623 1.410595
0.446850 0.658255 1.405539
0.455914 0.660213 1.409718
0.463739 0.660340 1.409991
0.472748 0.662123 1.413798
0.479859 0.661232 1.411895
0.487102 0.660548 1.410434
0.493511 0.658773 1.406644
0.502117 0.659939 1.409134
0.513082 0.664124 1.418070
0.520977 0.664269 1.418380
0.528123 0.663468 1.416670
0.539303 0.667686 1.425677
0.554623 0.676835 1.445212
0.563438 0.677900 1.447486
0.571151 0.677628 1.446904
0.579161 0.677711 1.447081
0.586173 0.676639 1.444793
0.592399 0.674700 1.440654
0.609166 0.684661 1.461922
0.621798 0.689775 1.472842
0.627350 0.687005 1.466926
0.632842 0.684240 1.461023
0.644157 0.687762 1.468544
0.650698 0.686161 1.465126
0.657791 0.685176 1.463023
0.668066 0.687489 1.467961
0.674662 0.686005 1.464792
0.682603 0.685909 1.464586
0.691250 0.686515 1.465881
0.697782 0.685031 1.462712
0.703621 0.682909 1.458180
0.712489 0.683740 1.459956
0.719821 0.683096 1.458580
0.726588 0.681936 1.456103
0.736471 0.683693 1.459856
0.741593 0.681040 1.454191
0.735610 0.668355 1.427104
0.742939 0.667904 1.426142
0.742496 0.660548 1.410434
0.747245 0.657915 1.404812
0.753181 0.656371 1.401515
0.750201 0.647166 1.381861
0.767087 0.655111 1.398826
0.771774 0.652584 1.393430
0.775628 0.649409 1.386651
0.783650 0.649752 1.387383
0.784189 0.643943 1.374980
0.801797 0.652128 1.392456
0.793337 0.639157 1.364760
0.811410 0.647604 1.382796
0.827730 0.654510 1.397542
0.831274 0.651278 1.390641
0.839361 0.651632 1.391398
0.849595 0.653632 1.395668
0.852207 0.649785 1.387452
0.870102 0.657554 1.404043
0.867152 0.649574 1.387002
0.853264 0.633610 1.352915
0.850903 0.626407 1.337535
0.885969 0.646644 1.380745
0.884651 0.640206 1.367001
0.892140 0.640198 1.366983
0.899749 0.640275 1.367147
0.904436 0.638289 1.362906
0.923640 0.641238 1.369202
0.363342 0.897977 1.895200
0.366328 0.880167 1.857611
0.367000 0.857909 1.810635
0.363252 0.826767 1.744911
0.368669 0.817546 1.725450
0.372129 0.804558 1.698038
0.374184 0.789239 1.665707
0.374887 0.771870 1.629048
0.378078 0.760311 1.604652
0.382418 0.751535 1.586132
0.382438 0.734851 1.550918
0.375589 0.705980 1.489987
0.380430 0.699846 1.477041
0.385948 0.695187 1.467207
0.390444 0.688915 1.453971
0.398423 0.688916 1.453973
0.404465 0.685634 1.447046
0.409251 0.680391 1.435980
0.414579 0.676230 1.427198
0.423021 0.677208 1.429262
0.429777 0.675500 1.425657
0.436685 0.674088 1.422676
0.442549 0.671141 1.416458
0.448679 0.668693 1.411292
0.456507 0.668818 1.411554
0.463556 0.667814 1.409436
0.472670 0.669769 1.413563
0.478898 0.667639 1.409067
0.487493 0.668824 1.411568
0.494541 0.667881 1.409578
0.501283 0.666562 1.406793
0.509516 0.667234 1.408213
0.518990 0.669488 1.412970
0.527431 0.670363 1.414816
0.536144 0.671552 1.417325
0.549515 0.678459 1.431902
0.562150 0.684275 1.444177
0.571878 0.686440 1.448746
0.580926 0.687740 1.451490
0.586917 0.685435 1.446626
0.594107 0.684574 1.444809
0.602005 0.684540 1.444737
0.617713 0.693273 1.463167
0.627682 0.695422 1.467704
0.634706 0.694296 1.465328
0.643105 0.694683 1.466144
0.650714 0.694218 1.465163
0.660978 0.696562 1.470110
0.668405 0.695897 1.468705
0.673150 0.692487 1.461509
0.682428 0.693767 1.464211
0.691618 0.694928 1.466662
0.696384 0.691668 1.459781
0.703071 0.690369 1.457039
0.712441 0.691704 1.459857
0.716825 0.688223 1.452509
0.723536 0.687027 1.449985
0.728628 0.684337 1.444309
0.730265 0.678495 1.431979
0.732472 0.673301 1.421015
0.732863 0.666565 1.406799
0.740276 0.666289 1.406217
0.738623 0.657943 1.388604
0.738849 0.651425 1.374846
0.748850 0.653569 1.379372
0.769197 0.664610 1.402675
0.772033 0.660452 1.393898
0.776056 0.657381 1.387417
0.776860 0.651669 1.375362
0.779767 0.647814 1.367226
0.793791 0.653181 1.378552
0.806708 0.657544 1.387760
0.802623 0.648097 1.367823
0.813254 0.650597 1.373100
0.833974 0.661049 1.395158
0.844408 0.663231 1.399764
0.843851 0.656819 1.386232
0.831327 0.641291 1.353458
0.851318 0.650897 1.373733
0.868056 0.657870 1.388449
0.844473 0.634428 1.338975
0.887844 0.655605 1.383668
0.878631 0.643300 1.357699
0.885635 0.642976 1.357015
0.881576 0.634694 1.339535
0.890258 0.635644 1.341541
0.363188 0.907991 1.894396
0.365816 0.865044 1.804794
0.363747 0.837480 1.747284
0.366380 0.821880 1.714738
0.371945 0.813472 1.697196
0.375285 0.800729 1.670609
0.378080 0.787457 1.642919
0.382014 0.777122 1.621357
0.381973 0.759353 1.584285
0.385166 0.748664 1.561982
0.386009 0.733969 1.531325
0.389129 0.724139 1.510815
0.392081 0.714412 1.490521
0.392838 0.701166 1.462884
0.397229 0.694806 1.449616
0.405680 0.695657 1.451392
0.410075 0.689655 1.438870
0.415622 0.685781 1.430786
0.422670 0.684481 1.428074
0.429249 0.682483 1.423905
0.437134 0.682595 1.424138
0.443453 0.680300 1.419351
0.449403 0.677530 1.413572
0.457192 0.677578 1.413673
0.465479 0.678350 1.415282
0.472927 0.677895 1.414333
0.480183 0.677182 1.412846
0.486920 0.675774 1.409908
0.494956 0.676183 1.410760
0.504126 0.678105 1.414771
0.510278 0.675971 1.410320
0.516297 0.673727 1.405638
0.524344 0.674157 1.406534
0.536121 0.679300 1.417264
0.546161 0.682127 1.423162
0.557278 0.686200 1.431661
0.568712 0.690545 1.440726
0.580276 0.694926 1.449866
0.588192 0.694879 1.449768
0.594282 0.692706 1.445235
0.601539 0.691932 1.443619
0.619457 0.703281 1.467297
0.629350 0.705344 1.471603
0.635685 0.703420 1.467587
0.645708 0.705573 1.472079
0.649959 0.701443 1.463462
0.660539 0.704161 1.469134
0.668499 0.704054 1.468911
0.672620 0.699955 1.460358
0.681965 0.701325 1.463217
0.692479 0.703851 1.468486
0.699117 0.702424 1.465510
0.703107 0.698400 1.457115
0.709329 0.696658 1.453480
0.716604 0.695978 1.452061
0.720677 0.692237 1.444256
0.725607 0.689392 1.438320
0.719173 0.675928 1.410229
0.723464 0.672722 1.403540
0.728917 0.670653 1.399224
0.734510 0.668755 1.395264
0.736621 0.663758 1.384839
0.736751 0.657097 1.370942
0.750446 0.662547 1.382312
0.758001 0.662521 1.382257
0.757084 0.655164 1.366908
0.767987 0.658079 1.372990
0.776525 0.658931 1.374768
0.769884 0.647011 1.349899
0.784656 0.653142 1.362689
0.787041 0.648943 1.353929
0.804846 0.657418 1.371611
0.807099 0.653150 1.362707
0.806849 0.646955 1.349781
0.821673 0.652848 1.362076
0.822417 0.647549 1.351021
0.842495 0.657432 1.371640
0.845984 0.654309 1.365125
0.850986 0.652402 1.361145
0.827548 0.628914 1.312140
0.849889 0.640321 1.335940
0.886433 0.662143 1.381469
0.882910 0.637698 1.330468
0.903288 0.647066 1.350014
0.349714 0.836435 1.725353
0.368641 0.858465 1.770795
0.365674 0.829687 1.711434
0.369964 0.818404 1.688160
0.376909 0.813401 1.677840
0.380875 0.802360 1.655065
0.381362 0.784677 1.618590
0.385424 0.774987 1.598601
0.388842 0.764461 1.576889
0.388012 0.746225 1.539272
0.391627 0.737130 1.520512
0.397376 0.732349 1.510651
0.399068 0.720439 1.486083
0.400927 0.709302 1.463110
0.406882 0.705707 1.455694
0.411965 0.700767 1.445504
0.418442 0.698338 1.440493
0.424589 0.695459 1.434556
0.430840 0.692854 1.429182
0.436394 0.689240 1.421728
0.442929 0.687276 1.417675
0.448947 0.684590 1.412136
0.457419 0.685675 1.414373
0.465231 0.685750 1.414528
0.471756 0.683958 1.410831
0.479694 0.684238 1.411408
0.487446 0.684249 1.411431
0.495289 0.684385 1.411712
0.502396 0.683514 1.409916
0.509515 0.682688 1.408212
0.518005 0.683694 1.410286
0.524165 0.681641 1.406053
0.530820 0.680282 1.403250
0.544174 0.687425 1.417983
0.556076 0.692558 1.428572
0.563275 0.691772 1.426951
0.578345 0.700542 1.445041
0.586894 0.701283 1.446569
0.593588 0.699818 1.443547
0.603083 0.701649 1.447324
0.614905 0.706105 1.456514
0.625567 0.709131 1.462757
0.634227 0.709841 1.464222
0.645286 0.713184 1.471117
0.651952 0.711648 1.467949
0.659279 0.710864 1.466332
0.667172 0.710701 1.465996
0.673981 0.709400 1.463313
0.680414 0.707740 1.459888
0.688386 0.707701 1.459807
0.695802 0.707097 1.458561
0.702775 0.706062 1.456427
0.711787 0.707075 1.458517
0.717256 0.704587 1.453384
0.717999 0.697560 1.438889
0.719554 0.691468 1.426322
0.717374 0.681955 1.406701
0.719346 0.676550 1.395551
0.719633 0.669692 1.381404
0.728531 0.670905 1.383907
0.734355 0.669292 1.380580
0.738309 0.666026 1.373841
0.744211 0.664564 1.370828
0.747631 0.660938 1.363347
0.752079 0.658283 1.357871
0.760126 0.658800 1.358937
0.768486 0.659575 1.360537
0.769511 0.654101 1.349244
0.773643 0.651346 1.343562
0.784735 0.654449 1.349962
0.810095 0.669281 1.380556
0.798582 0.653656 1.348327
0.823543 0.667900 1.377709
0.816520 0.656181 1.353535
0.824777 0.656842 1.354898
0.820550 0.647638 1.335912
0.815152 0.637681 1.315373
0.846644 0.656503 1.354199
0.831846 0.639417 1.318954
0.845781 0.644521 1.329483
0.893535 0.652760 1.346479
0.939130 0.664105 1.369880
0.365090 0.933646 1.904320
0.366215 0.910462 1.857034
0.362121 0.875913 1.786564
0.370843 0.873368 1.781374
0.367772 0.843892 1.721252
0.367956 0.823174 1.678995
0.375694 0.819955 1.672429
0.381211 0.812157 1.656525
0.385897 0.802995 1.637837
0.386847 0.786652 1.604503
0.389494 0.774409 1.579532
0.390647 0.759795 1.549723
0.393715 0.749449 1.528622
0.399415 0.744439 1.518403
0.404612 0.738717 1.506731
0.410649 0.734726 1.498591
0.414882 0.727727 1.484316
0.415051 0.714006 1.456330
0.421423 0.711275 1.450758
0.425350 0.704592 1.437128
0.432303 0.703076 1.434035
0.436610 0.697387 1.422432
0.442301 0.694069 1.415665
0.449272 0.692841 1.413159
0.456311 0.691756 1.410947
0.462982 0.690159 1.407690
0.470188 0.689400 1.406142
0.480080 0.692539 1.412545
0.488638 0.693685 1.414882
0.496177 0.693371 1.414241
0.502884 0.691923 1.411287
0.510058 0.691150 1.409710
0.517247 0.690421 1.408223
0.525591 0.691232 1.409878
0.532734 0.690464 1.408311
0.540640 0.690691 1.408775
0.554902 0.698919 1.425557
0.563572 0.699971 1.427703
0.574171 0.703359 1.434613
0.584193 0.705957 1.439912
0.593215 0.707294 1.442638
0.605301 0.712200 1.452645
0.610523 0.709007 1.446134
0.619948 0.710717 1.449620
0.635132 0.718900 1.466311
0.644359 0.720219 1.469002
0.650154 0.717718 1.463901
0.660106 0.719811 1.468170
0.669112 0.720835 1.470259
0.672299 0.715639 1.459661
0.678033 0.713247 1.454781
0.686290 0.713532 1.455363
0.694828 0.714099 1.456519
0.702343 0.713615 1.455531
0.712983 0.716280 1.460968
0.719102 0.714396 1.457124
0.715792 0.703287 1.434467
0.714567 0.694448 1.416437
0.715270 0.687651 1.402574
0.718328 0.683239 1.393576
0.720018 0.677633 1.382141
0.724186 0.674452 1.375653
0.738970 0.681122 1.389256
0.729547 0.665570 1.357537
0.736718 0.665319 1.357025
0.753215 0.673411 1.373529
0.753397 0.666901 1.360251
0.754642 0.661450 1.349134
0.762645 0.661971 1.350195
0.768947 0.661019 1.348255
0.775621 0.660403 1.346998
0.778868 0.656907 1.339868
0.797880 0.666650 1.359739
0.805022 0.666386 1.359201
0.818424 0.671261 1.369144
0.820794 0.667082 1.360620
0.816045 0.657244 1.340554
0.811524 0.636393 1.298026
0.825268 0.641541 1.308525
0.816774 0.629461 1.283887
0.867897 0.651989 1.329836
0.374183 0.940685 1.897442
0.377120 0.922404 1.860567
0.371956 0.885792 1.786718
0.369964 0.858422 1.731510
0.368159 0.832845 1.679920
0.370729 0.818175 1.650329
0.376827 0.811804 1.637477
0.386413 0.813068 1.640027
0.390132 0.802210 1.618126
0.391710 0.787533 1.588521
0.395446 0.777737 1.568761
0.396534 0.763263 1.539566
0.399844 0.753580 1.520035
0.405091 0.747868 1.508515
0.412584 0.746450 1.505653
0.420005 0.744959 1.502645
0.421767 0.733681 1.479897
0.421108 0.718697 1.449673
0.428828 0.718303 1.448879
0.433362 0.712686 1.437549
0.437768 0.707062 1.426205
0.442857 0.702720 1.417445
0.450933 0.703184 1.418382
0.456203 0.699332 1.410613
0.462573 0.697268 1.406449
0.471127 0.698507 1.408948
0.480974 0.701594 1.415176
0.487821 0.700276 1.412516
0.494411 0.698636 1.409209
0.501650 0.697950 1.407824
0.509168 0.697666 1.407251
0.517907 0.699039 1.410021
0.523976 0.696821 1.405547
0.530630 0.695434 1.402750
0.539856 0.697409 1.406734
0.552998 0.704316 1.420664
0.568509 0.714006 1.440210
0.571481 0.707898 1.427891
0.583087 0.712506 1.437186
0.592597 0.714465 1.441136
0.603194 0.717664 1.447590
0.612838 0.719661 1.451618
0.618192 0.716635 1.445514
0.627187 0.717851 1.447967
0.639403 0.722679 1.457705
0.650894 0.726577 1.465568
0.658988 0.726635 1.465685
0.666847 0.726435 1.465281
0.674264 0.725765 1.463929
0.679626 0.722923 1.458198
0.689809 0.725217 1.462825
0.692335 0.719500 1.451293
0.699628 0.718812 1.449905
0.709753 0.721016 1.454350
0.717541 0.720822 1.453960
0.709676 0.705082 1.422211
0.711112 0.698824 1.409588
0.714286 0.694390 1.400644
0.716464 0.689093 1.389959
0.720255 0.685443 1.382597
0.718231 0.676392 1.364341
0.720146 0.671200 1.353867
0.725914 0.669668 1.350777
0.734861 0.671069 1.353604
0.739219 0.668295 1.348008
0.750479 0.671753 1.354983
0.756496 0.670496 1.352447
0.763725 0.670327 1.352107
0.766652 0.666422 1.344231
0.770210 0.663136 1.337601
0.766617 0.653811 1.318793
0.776063 0.655678 1.322559
0.810678 0.678579 1.368751
0.809316 0.671220 1.353908
0.814288 0.669201 1.349834
0.816897 0.665294 1.341954
0.832191 0.665747 1.342868
0.848508 0.672843 1.357182
0.837274 0.658158 1.327561
0.837135 0.652373 1.315892
0.830512 0.641677 1.294318
0.829057 0.635122 1.281095
0.877439 0.666535 1.344457
0.876435 0.660221 1.331722
0.375888 0.955429 1.906086
0.389499 0.937837 1.870989
0.376633 0.883569 1.762724
0.375631 0.859155 1.714018
0.373774 0.834026 1.663885
0.374829 0.816437 1.628796
0.382569 0.813888 1.623711
0.386601 0.803748 1.603481
0.395013 0.802963 1.601914
0.397019 0.789473 1.575002
0.397236 0.773076 1.542290
0.402438 0.766862 1.529894
0.408299 0.762133 1.520459
0.413357 0.756124 1.508471
0.420419 0.753945 1.504124
0.428314 0.753316 1.502869
0.430271 0.742462 1.481215
0.433087 0.733467 1.463270
0.433691 0.721121 1.438640
0.438068 0.715378 1.427181
0.443462 0.711467 1.419380
0.450398 0.710125 1.416702
0.456637 0.707745 1.411955
0.462734 0.705230 1.406938
0.471027 0.706089 1.408651
0.479490 0.707171 1.410810
0.486506 0.706118 1.408709
0.493124 0.704530 1.405540
0.500955 0.704697 1.405874
0.509782 0.706238 1.408948
0.518671 0.707818 1.412101
0.525063 0.705995 1.408463
0.530362 0.702776 1.402040
0.540896 0.706487 1.409444
0.549810 0.708005 1.412474
0.556985 0.707275 1.411018
0.572671 0.717224 1.430865
0.582354 0.719487 1.435381
0.588966 0.717946 1.432305
0.603653 0.726160 1.448692
0.613966 0.728966 1.454291
0.614515 0.720256 1.436915
0.623653 0.721707 1.439808
0.636789 0.727690 1.451746
0.650741 0.734446 1.465223
0.659030 0.734724 1.465778
0.664813 0.732235 1.460811
0.674751 0.734327 1.464986
0.683752 0.735362 1.467051
0.689961 0.733405 1.463146
0.692260 0.727385 1.451136
0.702202 0.729441 1.455239
0.706416 0.725568 1.447512
0.717568 0.728828 1.454015
0.711794 0.715013 1.426454
0.711694 0.707137 1.410742
0.711597 0.699433 1.395373
0.705012 0.685584 1.367744
0.709604 0.682781 1.362150
0.710704 0.676712 1.350043
0.724739 0.682956 1.362501
0.727820 0.678857 1.354323
0.728656 0.672768 1.342175
0.734183 0.671088 1.338823
0.745586 0.674760 1.346149
0.739007 0.662245 1.321182
0.746801 0.662728 1.322145
0.759752 0.667734 1.332132
0.753129 0.655606 1.307936
0.752927 0.649243 1.295243
0.764346 0.652927 1.302592
0.776010 0.656748 1.310216
0.802047 0.672553 1.341747
0.793216 0.647322 1.291410
0.845376 0.654791 1.306311
0.367698 0.944843 1.864555
0.370048 0.925140 1.825673
0.381918 0.929650 1.834573
0.379118 0.899135 1.774354
0.378047 0.874145 1.725039
0.382668 0.863218 1.703477
0.375504 0.826859 1.631726
0.377948 0.812859 1.604098
0.384454 0.808034 1.594575
0.392940 0.807493 1.593509
0.400909 0.805936 1.590436
0.400101 0.787176 1.553414
0.404844 0.779893 1.539043
0.408629 0.771099 1.521688
0.412934 0.763619 1.506928
0.420469 0.762290 1.504304
0.429997 0.764555 1.508774
0.435779 0.760200 1.500179
0.436972 0.748148 1.476397
0.436793 0.734230 1.448930
0.439868 0.726181 1.433047
0.446166 0.723641 1.428034
0.453726 0.723202 1.427168
0.459972 0.720718 1.422267
0.464112 0.715073 1.411126
0.470953 0.713707 1.408430
0.476879 0.711019 1.403126
0.486090 0.713238 1.407505
0.493763 0.713165 1.407362
0.500330 0.711522 1.404119
0.510592 0.715103 1.411187
0.518865 0.715834 1.412629
0.527591 0.717159 1.415244
0.534233 0.715654 1.412274
0.541131 0.714531 1.410056
0.551105 0.717442 1.415801
0.557688 0.715920 1.412797
0.567408 0.718412 1.417716
0.579981 0.724400 1.429532
0.590147 0.727260 1.435177
0.598902 0.728331 1.437289
0.612043 0.734638 1.449736
0.618726 0.733130 1.446761
0.624780 0.730926 1.442410
0.631069 0.729048 1.438704
0.644088 0.734895 1.450244
0.656094 0.739458 1.459248
0.663448 0.738731 1.457813
0.674751 0.742366 1.464986
0.685764 0.745600 1.471368
0.690582 0.742101 1.464465
0.693098 0.736238 1.452894
0.700378 0.735511 1.451460
0.705809 0.732881 1.446269
0.711791 0.730874 1.442308
0.717542 0.728677 1.437973
0.711332 0.714515 1.410025
0.698968 0.694541 1.370608
0.696482 0.684703 1.351194
0.704664 0.685450 1.352668
0.704054 0.677718 1.337410
0.709201 0.675630 1.333290
0.710435 0.669896 1.321974
0.722406 0.674298 1.330662
0.725632 0.670533 1.323231
0.727665 0.665750 1.313793
0.731059 0.662294 1.306973
0.743289 0.666832 1.315928
0.737383 0.655169 1.292911
0.756706 0.665931 1.314149
0.761971 0.664234 1.310801
0.756674 0.653448 1.289516
0.769571 0.658429 1.299345
0.748599 0.634607 1.252334
0.755524 0.634651 1.252421
0.805465 0.664514 1.311352
0.798798 0.653179 1.288984
0.802609 0.650534 1.283766
0.794919 0.633187 1.249533
0.383774 0.969845 1.893391
0.380158 0.935385 1.826117
0.379870 0.910673 1.777873
0.377643 0.882666 1.723196
0.381452 0.869791 1.698061
0.379333 0.844336 1.648365
0.378326 0.822484 1.605705
0.380585 0.808565 1.578531
0.386762 0.803404 1.568455
0.399061 0.810908 1.583105
0.410151 0.815688 1.592436
0.414305 0.790276 1.542827
0.416794 0.779105 1.521016
0.423917 0.776863 1.516641
0.429928 0.772709 1.508531
0.436471 0.769651 1.502560
0.444476 0.769236 1.501750
0.444210 0.754783 1.473534
0.442163 0.737873 1.440522
0.447139 0.733073 1.431150
0.455776 0.734336 1.433616
0.460460 0.729295 1.423775
0.463981 0.722613 1.410729
0.471168 0.721763 1.409071
0.477319 0.719381 1.404420
0.487108 0.722471 1.410452
0.495954 0.724087 1.413607
0.501642 0.721112 1.407801
0.511346 0.723914 1.413271
0.518891 0.723622 1.412701
0.530293 0.728638 1.422492
0.534128 0.723262 1.411996
0.541457 0.722702 1.410903
0.551045 0.725131 1.415647
0.556272 0.721835 1.409212
0.566137 0.724564 1.414538
0.574941 0.725880 1.417109
0.582974 0.726200 1.417733
0.596157 0.732843 1.430702
0.609738 0.739796 1.444276
0.621415 0.744290 1.453050
0.625008 0.739110 1.442936
0.633333 0.739586 1.443867
0.641162 0.739478 1.443655
0.652303 0.743146 1.450816
0.661780 0.744853 1.454148
0.675119 0.750813 1.465785
0.681095 0.748542 1.461350
0.689716 0.749196 1.462628
0.694431 0.745641 1.455687
0.697613 0.740540 1.445728
0.703899 0.738811 1.442353
0.710930 0.737895 1.440565
0.720354 0.739455 1.443609
0.712511 0.723449 1.412361
0.693304 0.696372 1.359501
0.693164 0.688821 1.344758
0.696013 0.684366 1.336062
0.705888 0.686842 1.340895
0.705954 0.679819 1.327186
0.703928 0.670947 1.309865
0.706699 0.666780 1.301730
0.721216 0.673668 1.315178
0.726329 0.671723 1.311381
0.731313 0.669698 1.307426
0.733491 0.665168 1.298581
0.729921 0.655561 1.279827
0.754601 0.671269 1.310493
0.751122 0.661867 1.292138
0.750243 0.654910 1.278557
0.735300 0.635920 1.241482
0.749160 0.641959 1.253273
0.741726 0.629807 1.229549
0.758937 0.638613 1.246740
0.790768 0.659452 1.287424
0.797412 0.659106 1.286747
0.821436 0.673004 1.313879
0.791950 0.643201 1.255696
0.785328 0.632321 1.234457
0.800670 0.639161 1.247810
0.389335 0.968228 1.870201
0.385332 0.933663 1.803435
0.379827 0.897281 1.733163
0.383543 0.883928 1.707370
0.380943 0.857002 1.655361
0.382189 0.839782 1.622099
0.378932 0.813676 1.571673
0.382142 0.802309 1.549717
0.391406 0.803871 1.552734
0.402491 0.809027 1.562693
0.437480 0.826532 1.596506
0.430211 0.796842 1.539157
0.433108 0.786764 1.519690
0.440295 0.784711 1.515724
0.445702 0.779621 1.505894
0.451608 0.775572 1.498072
0.449194 0.757637 1.463430
0.452040 0.749046 1.446836
0.457775 0.745458 1.439904
0.464313 0.743276 1.435690
0.467144 0.735332 1.420345
0.472891 0.732163 1.414225
0.478364 0.728679 1.407495
0.487861 0.731338 1.412632
0.496592 0.732784 1.415424
0.503378 0.731360 1.412673
0.512775 0.733714 1.417220
0.524977 0.739952 1.429271
0.530867 0.737240 1.424031
0.536493 0.734245 1.418247
0.545263 0.735579 1.420822
0.551184 0.733084 1.416004
0.555109 0.728042 1.406265
0.564363 0.730031 1.410107
0.569598 0.726838 1.403940
0.580867 0.731327 1.412610
0.592867 0.736606 1.422806
0.605072 0.741999 1.433224
0.613612 0.742817 1.434803
0.625973 0.748182 1.445166
0.634980 0.749453 1.447621
0.640411 0.746524 1.441964
0.646091 0.743954 1.437000
0.655969 0.746221 1.441379
0.670713 0.753904 1.456219
0.678702 0.753902 1.456215
0.689794 0.757308 1.462793
0.696232 0.755584 1.459464
0.698747 0.749690 1.448080
0.705981 0.748934 1.446620
0.713315 0.748301 1.445396
0.722124 0.749212 1.447156
0.722688 0.741642 1.432534
0.694141 0.704682 1.361143
0.694185 0.697224 1.346737
0.705070 0.700698 1.353448
0.706019 0.694328 1.341143
0.704381 0.685571 1.324228
0.705981 0.680113 1.313686
0.705353 0.672640 1.299252
0.718381 0.678209 1.310008
0.717480 0.670648 1.295403
0.730118 0.675765 1.305288
0.722464 0.662186 1.279059
0.727806 0.660664 1.276119
0.742603 0.667672 1.289656
0.736713 0.656124 1.267350
0.748158 0.660086 1.275003
0.727828 0.636201 1.228867
0.745043 0.645270 1.246385
0.754997 0.647943 1.251548
0.758249 0.644868 1.245609
0.755793 0.637037 1.230483
0.773959 0.635322 1.227170
0.794814 0.646814 1.249368
0.807740 0.651713 1.258829
0.813443 0.650749 1.256968
0.854800 0.661402 1.277545
0.380607 0.956554 1.828274
0.384776 0.942198 1.800836
0.383616 0.915836 1.750450
0.385129 0.896990 1.714429
0.388333 0.882888 1.687476
0.378862 0.841295 1.607979
0.379731 0.824033 1.574986
0.384007 0.814771 1.557282
0.388250 0.805842 1.540216
0.392993 0.798309 1.525819
0.404012 0.803573 1.535881
0.418216 0.814828 1.557391
0.421836 0.805423 1.539417
0.428723 0.802502 1.533833
0.432006 0.793079 1.515822
0.440180 0.792821 1.515329
0.446091 0.788571 1.507206
0.454408 0.788653 1.507362
0.458445 0.781435 1.493568
0.460701 0.771490 1.474559
0.461552 0.759575 1.451785
0.467910 0.756972 1.446811
0.468228 0.744849 1.423641
0.474046 0.741730 1.417679
0.481971 0.741955 1.418108
0.487187 0.738069 1.410681
0.495106 0.738334 1.411188
0.503355 0.739077 1.412607
0.513831 0.743017 1.420139
0.524715 0.747421 1.428556
0.532387 0.747187 1.428109
0.540720 0.747874 1.429422
0.548145 0.747304 1.428332
0.551253 0.740947 1.416182
0.556540 0.737656 1.409891
0.563394 0.736502 1.407687
0.572132 0.737809 1.410184
0.581833 0.740308 1.414960
0.589576 0.740281 1.414909
0.600210 0.743838 1.421708
0.611423 0.748012 1.429685
0.623447 0.753060 1.439333
0.636249 0.758910 1.450515
0.641671 0.755921 1.444802
0.642657 0.747843 1.429363
0.653834 0.751676 1.436687
0.666568 0.757186 1.447220
0.676717 0.759664 1.451956
0.689853 0.765399 1.462918
0.697321 0.764786 1.461746
0.701504 0.760624 1.453792
0.707538 0.758542 1.449812
0.710908 0.753680 1.440519
0.721365 0.756357 1.445634
0.726163 0.753106 1.439421
0.705383 0.723684 1.383187
0.696293 0.706754 1.350828
0.705141 0.708196 1.353585
0.703304 0.698988 1.335985
0.702258 0.690749 1.320238
0.694839 0.676473 1.292953
0.698453 0.673119 1.286541
0.698546 0.666472 1.273837
0.706829 0.667695 1.276173
0.724590 0.677758 1.295407
0.707198 0.655063 1.252031
0.717949 0.658623 1.258836
0.736987 0.669646 1.279903
0.732410 0.659205 1.259947
0.731747 0.652450 1.247036
0.731317 0.646025 1.234756
0.740233 0.647899 1.238339
0.729215 0.632450 1.208810
0.762315 0.655198 1.252289
0.736185 0.627088 1.198561
0.761092 0.642563 1.228140
0.758742 0.634957 1.213602
0.773724 0.641861 1.226797
0.769375 0.632748 1.209380
0.762328 0.621591 1.188056
0.774977 0.626548 1.197529
0.813193 0.646481 1.235627
0.820809 0.647140 1.236888
0.378367 0.960898 1.817515
0.382887 0.947405 1.791993
0.385470 0.929914 1.758911
0.386226 0.908979 1.719312
0.385922 0.886608 1.676998
0.387184 0.868792 1.643299
0.383954 0.841936 1.592502
0.389879 0.835906 1.581096
0.385588 0.808709 1.529653
0.389955 0.800445 1.514022
0.399754 0.803442 1.519691
0.407009 0.801309 1.515656
0.412830 0.796493 1.506548
0.420629 0.795609 1.504876
0.427141 0.792371 1.498750
0.436622 0.794660 1.503081
0.442874 0.791095 1.496337
0.451178 0.791258 1.496646
0.459409 0.791292 1.496709
0.465395 0.787523 1.489580
0.466555 0.775859 1.467520
0.470283 0.768791 1.454150
0.470627 0.756517 1.430935
0.475423 0.751685 1.421795
0.481703 0.749319 1.417319
0.489350 0.749121 1.416944
0.494431 0.745060 1.409264
0.500915 0.743208 1.405761
0.515382 0.753076 1.424425
0.524905 0.755533 1.429072
0.531553 0.753841 1.425871
0.542385 0.758044 1.433823
0.549732 0.757328 1.432467
0.556779 0.756223 1.430378
0.560430 0.750601 1.419744
0.563631 0.744539 1.408278
0.577165 0.752105 1.422590
0.585048 0.752205 1.422778
0.588065 0.746127 1.411282
0.597260 0.747945 1.414719
0.609081 0.752961 1.424208
0.620622 0.757510 1.432812
0.629008 0.758141 1.434006
0.635949 0.757037 1.431917
0.648815 0.762927 1.443058
0.656535 0.762697 1.442623
0.662469 0.760422 1.438321
0.673222 0.763667 1.444458
0.684319 0.767222 1.451181
0.694611 0.769804 1.456066
0.702975 0.770214 1.456841
0.714106 0.773612 1.463269
0.714588 0.765527 1.447976
0.719633 0.762455 1.442165
0.726715 0.761583 1.440517
0.729426 0.756199 1.430333
0.706094 0.724219 1.369842
0.703524 0.713982 1.350479
0.700424 0.703427 1.330516
0.686432 0.682263 1.290485
0.686125 0.674995 1.276737
0.696984 0.678748 1.283835
0.702737 0.677502 1.281479
0.702284 0.670358 1.267966
0.705203 0.666541 1.260747
0.694455 0.650006 1.229471
0.703158 0.651819 1.232901
0.723581 0.664360 1.256622
0.706973 0.642984 1.216189
0.719191 0.647980 1.225639
0.736237 0.657192 1.243064
0.722379 0.638903 1.208470
0.737598 0.646430 1.222707
0.750018 0.651389 1.232087
0.728303 0.626879 1.185727
0.753357 0.642703 1.215657
0.756879 0.640041 1.210622
0.742800 0.622670 1.177765
0.768595 0.638736 1.208154
0.767830 0.632644 1.196630
0.755195 0.616958 1.166961
0.780738 0.632462 1.196286
0.768696 0.617515 1.168016
0.805440 0.641683 1.213727
0.379956 0.974947 1.825146
0.392261 0.980673 1.835866
0.393210 0.958433 1.794231
0.382291 0.909058 1.701799
0.380372 0.862366 1.614390
0.377094 0.835476 1.564051
0.383663 0.831115 1.555887
0.385444 0.816798 1.529084
0.383852 0.796095 1.490328
0.390488 0.792965 1.484468
0.399201 0.794094 1.486581
0.405761 0.790980 1.480752
0.414049 0.791291 1.481334
0.423081 0.792986 1.484508
0.430827 0.792251 1.483130
0.440043 0.794197 1.486773
0.447530 0.793007 1.484546
0.457010 0.795329 1.488893
0.464267 0.793769 1.485972
0.469551 0.788947 1.476946
0.472679 0.780727 1.461557
0.471986 0.766576 1.435066
0.474079 0.757340 1.417777
0.479666 0.753895 1.411327
0.488547 0.755653 1.414618
0.495586 0.754552 1.412556
0.500294 0.749991 1.404018
0.512246 0.756263 1.415759
0.526559 0.765780 1.433576
0.533930 0.765070 1.432248
0.539068 0.761228 1.425054
0.547882 0.762613 1.427646
0.558735 0.766756 1.435404
0.565846 0.765720 1.433464
0.570689 0.761686 1.425912
0.576809 0.759442 1.421712
0.583460 0.757949 1.418916
0.589975 0.756320 1.415867
0.597076 0.755474 1.414283
0.606207 0.757186 1.417488
0.614451 0.757762 1.418566
0.627519 0.764197 1.430612
0.637654 0.766945 1.435756
0.646895 0.768564 1.438787
0.655674 0.769602 1.440730
0.667716 0.774399 1.449711
0.675382 0.774068 1.449092
0.683582 0.774350 1.449619
0.692188 0.775080 1.450986
0.704027 0.779373 1.459022
0.713866 0.781379 1.462778
0.721675 0.781143 1.462336
0.726976 0.778228 1.456880
0.737306 0.780702 1.461510
0.737239 0.772232 1.445654
0.721649 0.747854 1.400018
0.694980 0.712631 1.334080
0.691566 0.701739 1.313689
0.685335 0.688243 1.288424
0.694166 0.689994 1.291700
0.687152 0.676118 1.265724
0.694139 0.676159 1.265801
0.698682 0.673841 1.261463
0.694678 0.663408 1.241931
0.700867 0.662816 1.240823
0.705738 0.661001 1.237425
0.709945 0.658605 1.232940
0.697498 0.640951 1.199890
0.706200 0.642879 1.203500
0.732900 0.661003 1.237429
0.706355 0.631215 1.181664
0.725355 0.642298 1.202411
0.753567 0.661265 1.237919
0.749602 0.651909 1.220404
0.743174 0.640596 1.199226
0.738975 0.631386 1.181984
0.742370 0.628768 1.177083
0.780928 0.655721 1.227541
0.756760 0.629994 1.179379
0.790171 0.652231 1.221007
0.759267 0.621452 1.163388
0.794721 0.624230 1.168587
0.382376 0.991235 1.836770
0.387798 0.979475 1.814980
0.389475 0.959079 1.777186
0.389287 0.935202 1.732941
0.389345 0.891776 1.652472
0.375384 0.840231 1.556958
0.382047 0.836116 1.549334
0.383287 0.820571 1.520528
0.379685 0.795541 1.474147
0.387303 0.794576 1.472360
0.395169 0.794147 1.471564
0.402480 0.792644 1.468780
0.412571 0.796567 1.476048
0.419410 0.794181 1.471627
0.428278 0.795653 1.474355
0.437040 0.796879 1.476626
0.445160 0.796910 1.476685
0.452234 0.795101 1.473332
0.462290 0.798508 1.479644
0.470477 0.798622 1.479856
0.476061 0.794391 1.472016
0.475127 0.779604 1.444616
0.473106 0.763550 1.414868
0.483222 0.767285 1.421788
0.489076 0.764243 1.416152
0.493040 0.758388 1.405301
0.501264 0.759164 1.406741
0.509310 0.759652 1.407645
0.520112 0.764174 1.416024
0.529615 0.766682 1.420672
0.539198 0.769233 1.425399
0.546168 0.768036 1.423181
0.557077 0.772333 1.431143
0.568222 0.776835 1.439485
0.577484 0.778673 1.442891
0.584728 0.777777 1.441231
0.581208 0.762779 1.413440
0.589107 0.762965 1.413783
0.599072 0.765787 1.419013
0.606306 0.765090 1.417721
0.615422 0.766755 1.420807
0.624221 0.767989 1.423093
0.629100 0.764428 1.416495
0.643219 0.772046 1.430612
0.656833 0.778881 1.443277
0.668503 0.783276 1.451420
0.676416 0.783217 1.451311
0.682510 0.781077 1.447345
0.691977 0.782803 1.450544
0.696857 0.779359 1.444162
0.709281 0.784335 1.453383
0.716955 0.784006 1.452773
0.725313 0.784424 1.453547
0.738443 0.789938 1.463764
0.739027 0.782056 1.449159
0.734964 0.769477 1.425851
0.708300 0.733750 1.359648
0.687447 0.704725 1.305865
0.693210 0.703303 1.303228
0.699661 0.702599 1.301925
0.691380 0.687267 1.273514
0.693248 0.682228 1.264177
0.694632 0.676817 1.254150
0.693027 0.668629 1.238979
0.694808 0.663836 1.230096
0.713009 0.674671 1.250174
0.708718 0.664221 1.230809
0.709486 0.658664 1.220512
0.704467 0.647888 1.200545
0.703901 0.641371 1.188468
0.702004 0.633771 1.174385
0.722190 0.646064 1.197165
0.743455 0.659092 1.221306
0.739958 0.650132 1.204702
0.744914 0.648691 1.202033
0.730919 0.630918 1.169098
0.728311 0.623197 1.154793
0.753785 0.633963 1.174742
0.761707 0.629854 1.167127
0.792132 0.633701 1.174255
0.389396 0.993509 1.822455
0.389506 0.968909 1.777330
0.386697 0.916049 1.680365
0.384443 0.889500 1.631664
0.381039 0.861559 1.580411
0.388656 0.859228 1.576135
0.381051 0.824079 1.511658
0.380539 0.805438 1.477465
0.387650 0.803374 1.473678
0.394130 0.800113 1.467696
0.401026 0.797811 1.463474
0.410854 0.801316 1.469903
0.419756 0.802916 1.472838
0.427737 0.802729 1.472495
0.435489 0.802124 1.471385
0.444279 0.803420 1.473763
0.453376 0.805214 1.477053
0.459076 0.801018 1.469356
0.470833 0.807353 1.480977
0.476918 0.803913 1.474667
0.483941 0.802141 1.471417
0.476817 0.777364 1.425966
0.483658 0.775786 1.423072
0.488160 0.770566 1.413496
0.496099 0.770852 1.414021
0.504470 0.771788 1.415737
0.515196 0.776244 1.423912
0.522664 0.775731 1.422971
0.527930 0.772015 1.416154
0.537894 0.775176 1.421952
0.545863 0.775412 1.422385
0.558166 0.781712 1.433943
0.566312 0.782095 1.434645
0.572849 0.780277 1.431310
0.583648 0.784235 1.438570
0.580620 0.769755 1.412008
0.587935 0.769189 1.410970
0.597294 0.771277 1.414800
0.606196 0.772729 1.417464
0.614419 0.773289 1.418491
0.619581 0.770031 1.412515
0.628316 0.771239 1.414730
0.640623 0.776748 1.424837
0.654739 0.784293 1.438676
0.667459 0.790004 1.449153
0.677692 0.792673 1.454049
0.683741 0.790443 1.449957
0.698687 0.798431 1.464610
0.700692 0.791616 1.452110
0.705902 0.788535 1.446457
0.716352 0.791311 1.451551
0.722653 0.789493 1.448216
0.731190 0.790131 1.449386
0.743096 0.794358 1.457139
0.746208 0.789193 1.447664
0.733856 0.767955 1.408706
0.705569 0.730657 1.340289
0.696047 0.713361 1.308562
0.699596 0.709677 1.301804
0.688436 0.691298 1.268090
0.687291 0.683242 1.253313
0.694273 0.683346 1.253504
0.686038 0.668616 1.226483
0.687634 0.663661 1.217394
0.696858 0.666093 1.221856
0.702649 0.665228 1.220269
0.697889 0.654485 1.200562
0.692526 0.643382 1.180195
0.688867 0.634054 1.163084
0.694857 0.633697 1.162429
0.693442 0.626654 1.149510
0.717936 0.642940 1.179385
0.738932 0.655831 1.203032
0.732300 0.644191 1.181679
0.710459 0.619492 1.136373
0.732441 0.633103 1.161340
0.734094 0.629059 1.153922
0.735964 0.625269 1.146969
0.771053 0.638695 1.171597
0.792008 0.634879 1.164598
0.389472 1.003706 1.822813
0.386941 0.972218 1.765626
0.396258 0.971307 1.763972
0.390451 0.934252 1.696679
0.392237 0.916669 1.664746
0.378599 0.864660 1.570293
0.388960 0.868556 1.577368
0.384478 0.839858 1.525251
0.381333 0.815243 1.480547
0.386373 0.808787 1.468824
0.392252 0.804315 1.460701
0.402677 0.809159 1.469498
0.411572 0.810796 1.472471
0.418104 0.807808 1.467044
0.426793 0.809019 1.469245
0.436184 0.811492 1.473735
0.445042 0.812899 1.476291
0.449765 0.806841 1.465290
0.460939 0.812363 1.475318
0.471442 0.816535 1.482894
0.474236 0.807437 1.466372
0.485134 0.812212 1.475044
0.484167 0.797292 1.447948
0.485998 0.787386 1.429958
0.492658 0.785495 1.426522
0.500055 0.784820 1.425297
0.505180 0.780653 1.417730
0.514143 0.782455 1.421002
0.529878 0.794355 1.442613
0.529995 0.782835 1.421692
0.534727 0.778367 1.413579
0.544780 0.781663 1.419564
0.553545 0.783043 1.422071
0.563850 0.786533 1.428409
0.572827 0.788100 1.431254
0.582958 0.791192 1.436870
0.592094 0.792867 1.439912
0.594820 0.786029 1.427493
0.598824 0.781036 1.418425
0.602337 0.775538 1.408440
0.609487 0.774802 1.407103
0.621800 0.780567 1.417573
0.631293 0.782693 1.421434
0.640324 0.784200 1.424172
0.649389 0.785713 1.426919
0.655579 0.783754 1.423361
0.674680 0.797093 1.447586
0.684049 0.798758 1.450610
0.698286 0.806003 1.463768
0.703665 0.802977 1.458272
0.705162 0.795637 1.444942
0.717652 0.800727 1.454185
0.727286 0.802553 1.457502
0.733792 0.800924 1.454544
0.744323 0.803677 1.459544
0.748920 0.800034 1.452927
0.758579 0.801817 1.456164
0.750676 0.785192 1.425973
0.700056 0.724691 1.316099
0.694027 0.711114 1.291441
0.681394 0.691114 1.255119
0.672626 0.675394 1.226570
0.675959 0.672017 1.220438
0.680600 0.669993 1.216762
0.679369 0.662284 1.202762
0.687353 0.663621 1.205190
0.692197 0.661930 1.202118
0.681400 0.645454 1.172196
0.683525 0.641412 1.164857
0.688336 0.639943 1.162188
0.700631 0.645394 1.172088
0.697619 0.636774 1.156433
0.695727 0.629323 1.142901
0.710261 0.636730 1.156354
0.721386 0.640977 1.164067
0.733331 0.645872 1.172956
0.741201 0.647124 1.175230
0.725747 0.628166 1.140801
0.788187 0.659459 1.197631
0.768551 0.632483 1.148641
0.800212 0.642727 1.167244
0.387066 1.007445 1.811550
0.389186 0.963478 1.732491
0.375354 0.865791 1.556834
0.385603 0.869639 1.563753
0.384500 0.848276 1.525339
0.381509 0.823746 1.481230
0.386436 0.816979 1.469062
0.394714 0.817430 1.469872
0.403141 0.818164 1.471192
0.410239 0.816223 1.467703
0.419047 0.817697 1.470352
0.427640 0.818702 1.472160
0.437941 0.822880 1.479672
0.445974 0.822720 1.479384
0.453606 0.821840 1.477801
0.463000 0.824127 1.481915
0.470654 0.823293 1.480416
0.474088 0.815228 1.465914
0.483670 0.817830 1.470592
0.491554 0.817522 1.470039
0.498016 0.814898 1.465319
0.494631 0.796498 1.432234
0.499008 0.790980 1.422311
0.504236 0.786959 1.415081
0.512178 0.787231 1.415570
0.518532 0.785091 1.411722
0.537135 0.801288 1.440847
0.533210 0.783895 1.409570
0.543256 0.787243 1.415591
0.552364 0.789158 1.419035
0.561966 0.791717 1.423636
0.574423 0.798171 1.435242
0.581772 0.797450 1.433944
0.592007 0.800651 1.439701
0.599464 0.800060 1.438638
0.606196 0.798530 1.435887
0.607412 0.789865 1.420306
0.616881 0.792017 1.424175
0.621642 0.788145 1.417213
0.627729 0.786030 1.413410
0.634779 0.785157 1.411841
0.643691 0.786581 1.414401
0.651657 0.786828 1.414845
0.660217 0.787778 1.416554
0.682475 0.804861 1.447272
0.699229 0.815135 1.465746
0.706367 0.814093 1.463871
0.715132 0.814927 1.465372
0.722871 0.814587 1.464761
0.726779 0.809985 1.456485
0.741444 0.817341 1.469712
0.745234 0.812680 1.461331
0.747152 0.806098 1.449495
0.760382 0.811731 1.459624
0.767141 0.810410 1.457250
0.764140 0.798912 1.436575
0.704420 0.728955 1.310780
0.682081 0.698704 1.256384
0.682180 0.691813 1.243993
0.677604 0.680365 1.223408
0.680270 0.676341 1.216172
0.667684 0.657380 1.182076
0.677447 0.660575 1.187821
0.679795 0.656548 1.180580
0.677494 0.648149 1.165478
0.684763 0.648977 1.166967
0.693389 0.651064 1.170719
0.703467 0.654463 1.176832
0.698068 0.643534 1.157178
0.699210 0.638776 1.148623
0.700223 0.633987 1.140012
0.702071 0.630032 1.132900
0.707901 0.629688 1.132282
0.705468 0.622064 1.118573
0.741991 0.648626 1.166335
0.745986 0.646542 1.162588
0.719079 0.617937 1.111152
0.735190 0.626471 1.126497
0.760775 0.642867 1.155980
0.750720 0.629125 1.131270
0.759362 0.631149 1.134908
0.764244 0.630040 1.132914
0.393907 0.984787 1.753506
0.384916 0.917488 1.633673
0.380675 0.886728 1.578903
0.380411 0.866396 1.542700
0.380420 0.847556 1.509154
0.379253 0.826956 1.472473
0.385048 0.822077 1.463786
0.394559 0.825171 1.469295
0.402171 0.824247 1.467650
0.408985 0.821758 1.463217
0.420271 0.828177 1.474646
0.427567 0.826638 1.471907
0.437355 0.829885 1.477689
0.445145 0.829294 1.476636
0.452200 0.827377 1.473223
0.460997 0.828659 1.475505
0.468981 0.828461 1.475153
0.476651 0.827724 1.473840
0.484279 0.826940 1.472444
0.493875 0.829487 1.476979
0.500010 0.826232 1.471184
0.502852 0.817727 1.456041
0.501009 0.801987 1.428013
0.505092 0.796073 1.417484
0.515919 0.800806 1.425911
0.531104 0.812061 1.445951
0.533669 0.803971 1.431547
0.535105 0.794442 1.414579
0.541945 0.793092 1.412176
0.550271 0.793925 1.413658
0.562094 0.799710 1.423960
0.568610 0.797890 1.420719
0.577610 0.799557 1.423687
0.589346 0.804916 1.433230
0.598703 0.806928 1.436811
0.606167 0.806370 1.435818
0.612950 0.804931 1.433256
0.613966 0.796052 1.417445
0.621193 0.795347 1.416190
0.627259 0.793191 1.412351
0.636763 0.795382 1.416253
0.643739 0.794401 1.414506
0.650486 0.793164 1.412303
0.656665 0.791271 1.408933
0.677030 0.806318 1.435725
0.692881 0.815704 1.452438
0.703300 0.818555 1.457514
0.710326 0.817437 1.455524
0.720233 0.819622 1.459415
0.727067 0.818302 1.457063
0.734630 0.817820 1.456206
0.743336 0.818609 1.457610
0.748966 0.816028 1.453016
0.757543 0.816680 1.454175
0.766703 0.817939 1.456417
0.773972 0.817176 1.455059
0.778282 0.813337 1.448223
0.679441 0.695834 1.238998
0.684380 0.693949 1.235641
0.673789 0.676508 1.204586
0.676792 0.672922 1.198201
0.682080 0.671655 1.195944
0.669973 0.653446 1.163522
0.677590 0.654637 1.165643
0.680112 0.650929 1.159040
0.677546 0.642465 1.143970
0.680347 0.639200 1.138155
0.692194 0.644414 1.147441
0.685148 0.632105 1.125523
0.691808 0.632548 1.126312
0.695216 0.630036 1.121839
0.698927 0.627840 1.117928
0.694868 0.618763 1.101766
0.705270 0.622609 1.108613
0.711636 0.622856 1.109054
0.718512 0.623542 1.110276
0.726979 0.625586 1.113915
0.725491 0.619100 1.102367
0.718481 0.608048 1.082687
0.760527 0.638354 1.136649
0.762662 0.634939 1.130568
0.764085 0.630991 1.123539
0.781983 0.640602 1.140653
0.406342 1.051485 1.854152
0.399239 1.007870 1.777244
0.408632 1.006984 1.775681
0.397119 0.955823 1.685465
0.378859 0.891120 1.571371
0.382265 0.879123 1.550215
0.392112 0.882140 1.555536
0.379818 0.836278 1.474665
0.385472 0.831022 1.465396
0.395039 0.834245 1.471080
0.400492 0.828826 1.461524
0.410056 0.831959 1.467048
0.418625 0.832992 1.468870
0.425256 0.830203 1.463952
0.438041 0.839308 1.480008
0.445322 0.837729 1.477223
0.450713 0.832712 1.468377
0.461680 0.837996 1.477693
0.468450 0.835608 1.473483
0.476295 0.835186 1.472738
0.485320 0.836814 1.475610
0.492074 0.834537 1.471594
0.498034 0.831008 1.465372
0.501530 0.823546 1.452212
0.504127 0.814863 1.436901
0.516555 0.822094 1.449652
0.516863 0.810110 1.428520
0.520014 0.802873 1.415758
0.528177 0.803472 1.416816
0.536328 0.804037 1.417811
0.544638 0.804822 1.419195
0.548477 0.799069 1.409051
0.560236 0.804855 1.419253
0.570297 0.808076 1.424934
0.578253 0.808268 1.425271
0.588466 0.811568 1.431091
0.596100 0.811270 1.430566
0.604610 0.812156 1.432128
0.615304 0.815917 1.438759
0.623910 0.816849 1.440403
0.622933 0.805367 1.420157
0.626969 0.800571 1.411699
0.633221 0.798686 1.408375
0.641337 0.799169 1.409227
0.651236 0.801837 1.413931
0.657511 0.800032 1.410749
0.673655 0.810137 1.428568
0.679145 0.807345 1.423644
0.695575 0.817474 1.441506
0.704341 0.818469 1.443259
0.713038 0.819363 1.444837
0.720442 0.818767 1.443785
0.725846 0.815936 1.438794
0.735573 0.817973 1.442386
0.743017 0.817455 1.441473
0.756231 0.823230 1.451656
0.764201 0.823235 1.451665
0.775152 0.826418 1.457278
0.780079 0.823180 1.451567
0.680274 0.696524 1.228227
0.677129 0.686504 1.210557
0.672484 0.675171 1.190573
0.674861 0.671038 1.183286
0.685344 0.674969 1.190217
0.700153 0.683044 1.204457
0.678654 0.655880 1.156556
0.677064 0.648281 1.143156
0.678664 0.643848 1.135339
0.675414 0.634936 1.119625
0.683251 0.636514 1.122407
0.695039 0.641711 1.131571
0.692707 0.633895 1.117789
0.693837 0.629357 1.109786
0.704654 0.633608 1.117283
0.690596 0.615611 1.085547
0.725424 0.641127 1.130542
0.711686 0.623653 1.099728
0.725046 0.630019 1.110954
0.729136 0.628290 1.107905
0.736279 0.629199 1.109508
0.736849 0.624522 1.101261
0.755210 0.634878 1.119521
0.759120 0.633015 1.116238
0.783481 0.648100 1.142838
0.424862 1.082932 1.891306
0.400496 0.996485 1.740329
0.384749 0.935010 1.632965
0.382820 0.909149 1.587798
0.396693 0.921132 1.608727
0.387593 0.880410 1.537608
0.380234 0.845295 1.476279
0.386517 0.841339 1.469371
0.394545 0.841265 1.469242
0.402455 0.840948 1.468688
0.410466 0.840850 1.468516
0.420736 0.845294 1.476279
0.425341 0.838404 1.464245
0.437892 0.847142 1.479505
0.443153 0.841714 1.470026
0.454707 0.848220 1.481388
0.465217 0.852585 1.489012
0.471478 0.849147 1.483008
0.475438 0.841751 1.470090
0.483454 0.841663 1.469936
0.491988 0.842464 1.471336
0.496658 0.836731 1.461323
0.500912 0.830488 1.450421
0.504839 0.823909 1.438931
0.510863 0.820902 1.433679
0.518442 0.820446 1.432883
0.520470 0.811351 1.416999
0.530448 0.814735 1.422908
0.535122 0.809991 1.414623
0.543625 0.811097 1.416555
0.549737 0.808654 1.412288
0.557348 0.808454 1.411938
0.568849 0.813823 1.421314
0.578436 0.816346 1.425722
0.582705 0.811398 1.417079
0.594484 0.816899 1.426687
0.607653 0.824142 1.439337
0.616736 0.825728 1.442107
0.627722 0.829792 1.449204
0.631271 0.824044 1.439166
0.634107 0.817519 1.427769
0.635908 0.809836 1.414351
0.644100 0.810378 1.415299
0.649375 0.807282 1.409892
0.657472 0.807725 1.410666
0.668683 0.811939 1.418025
0.680819 0.817167 1.427155
0.686371 0.814462 1.422431
0.691728 0.811589 1.417414
0.715038 0.829611 1.448889
0.721274 0.827644 1.445452
0.725755 0.823727 1.438613
0.732612 0.822563 1.436580
0.742841 0.825170 1.441133
0.744105 0.817868 1.428379
0.761573 0.828342 1.446673
0.780433 0.840099 1.467205
0.786797 0.838302 1.464067
0.805407 0.849457 1.483549
0.806990 0.842611 1.471592
0.688031 0.697464 1.218098
0.677094 0.679773 1.187202
0.684519 0.680679 1.188783
0.678200 0.668029 1.166692
0.676099 0.659733 1.152202
0.672749 0.650382 1.135871
0.685012 0.656158 1.145959
0.687531 0.652581 1.139712
0.697390 0.655972 1.145633
0.692834 0.645865 1.127982
0.688693 0.636320 1.111313
0.695230 0.636722 1.112014
0.703330 0.638536 1.115182
0.690898 0.621839 1.086022
0.699588 0.624276 1.090278
0.710023 0.628216 1.097158
0.718587 0.630448 1.101056
0.722266 0.628392 1.097466
0.736304 0.635308 1.109545
0.725038 0.620458 1.083609
0.729969 0.619596 1.082105
0.737137 0.620632 1.083913
0.399809 0.980920 1.696884
0.383863 0.920364 1.592128
0.393783 0.923139 1.596928
0.380879 0.873451 1.510975
0.380062 0.853010 1.475613
0.383244 0.842210 1.456930
0.392656 0.845261 1.462209
0.404644 0.853625 1.476677
0.410730 0.849454 1.469461
0.419813 0.851522 1.473038
0.428821 0.853363 1.476224
0.438931 0.857289 1.483016
0.444634 0.852621 1.474940
0.450204 0.847869 1.466719
0.460841 0.852659 1.475006
0.471302 0.856963 1.482452
0.475820 0.850499 1.471270
0.481651 0.846559 1.464453
0.489371 0.846014 1.463511
0.497816 0.846719 1.464730
0.506570 0.847918 1.466805
0.507168 0.835643 1.445570
0.513167 0.832506 1.440143
0.520887 0.832216 1.439642
0.531763 0.836900 1.447744
0.537772 0.833899 1.442553
0.536911 0.820487 1.419353
0.543793 0.819123 1.416993
0.548070 0.813927 1.408004
0.556698 0.815249 1.410291
0.569281 0.822246 1.422396
0.579256 0.825339 1.427745
0.583265 0.819960 1.418441
0.592549 0.822043 1.422043
0.604787 0.828116 1.432549
0.615939 0.832565 1.440245
0.622718 0.831065 1.437650
0.633084 0.834330 1.443298
0.642916 0.836819 1.447604
0.639769 0.822561 1.422939
0.645006 0.819295 1.417289
0.645229 0.809814 1.400889
0.659244 0.817663 1.414467
0.668513 0.819512 1.417665
0.668761 0.810385 1.401877
0.679314 0.813813 1.407806
0.686523 0.813202 1.406750
0.717290 0.840199 1.453451
0.718033 0.831821 1.438958
0.725037 0.830799 1.437190
0.734362 0.832430 1.440012
0.746481 0.837160 1.448194
0.742998 0.824477 1.426254
0.757055 0.831319 1.438091
0.771088 0.837994 1.449638
0.763004 0.820742 1.419793
0.825191 0.878663 1.519990
0.813273 0.857308 1.483049
0.806328 0.841566 1.455817
0.717300 0.734102 1.269915
0.678419 0.687631 1.189525
0.675212 0.677858 1.172620
0.682387 0.678595 1.173894
0.700983 0.690570 1.194609
0.693910 0.677268 1.171600
0.685805 0.663213 1.147285
0.682873 0.654371 1.131989
0.695297 0.660271 1.142195
0.700490 0.659260 1.140446
0.689739 0.643394 1.113000
0.688120 0.636250 1.100642
0.688338 0.630914 1.091412
0.705837 0.641373 1.109505
0.715198 0.644322 1.114606
0.706514 0.631102 1.091736
0.728746 0.645488 1.116623
0.718622 0.631214 1.091930
0.720093 0.627276 1.085118
0.736627 0.636416 1.100930
0.720475 0.617398 1.068030
0.727142 0.618084 1.069217
0.745334 0.628476 1.087195
0.396567 0.982200 1.683121
0.391033 0.925393 1.585776
0.386196 0.894050 1.532065
0.373795 0.846908 1.451281
0.381218 0.845708 1.449225
0.393279 0.854638 1.464527
0.404607 0.861649 1.476542
0.411533 0.859193 1.472334
0.419025 0.857992 1.470275
0.426291 0.856381 1.467516
0.434470 0.856630 1.467942
0.442646 0.856866 1.468346
0.450474 0.856430 1.467599
0.461663 0.862288 1.477637
0.469841 0.862417 1.477857
0.478645 0.863671 1.480007
0.476889 0.846144 1.449973
0.483708 0.844161 1.446575
0.493541 0.847415 1.452150
0.502997 0.849930 1.456460
0.509161 0.846889 1.451250
0.516999 0.846684 1.450898
0.524343 0.845689 1.449193
0.528328 0.839387 1.438393
0.535785 0.838705 1.437225
0.538654 0.830965 1.423961
0.544390 0.827805 1.418547
0.549117 0.823224 1.410695
0.557496 0.824167 1.412312
