# .PCD v0.7 - Point Cloud Data file format
VERSION 0.7
FIELDS x y z
SIZE 4 4 4
TYPE F F F
COUNT 1 1 1
WIDTH 1724
HEIGHT 1
VIEWPOINT 0 0 0 1 0 0 0
POINTS 1724
DATA ascii
0.144953 0.148944 1.768271
0.153747 0.148069 1.757882
0.163356 0.148035 1.757482
0.174539 0.149352 1.773117
0.187426 0.151912 1.803511
-0.380605 0.159322 1.775794
-0.367512 0.157883 1.759760
-0.356503 0.157286 1.753105
-0.347254 0.157454 1.754977
-0.339533 0.158344 1.764899
-0.333346 0.160023 1.783610
-0.325721 0.161092 1.795528
-0.246931 0.161111 1.795737
-0.233383 0.158600 1.767753
-0.221861 0.157308 1.753348
-0.211214 0.156548 1.744875
-0.201256 0.156249 1.741548
-0.191295 0.155920 1.737872
-0.181026 0.155291 1.730866
-0.170807 0.154638 1.723584
-0.160353 0.153682 1.712935
-0.150475 0.153195 1.707504
-0.140529 0.152568 1.700519
-0.130997 0.152335 1.697916
-0.121412 0.152000 1.694180
-0.112019 0.151868 1.692709
-0.102787 0.151950 1.693633
-0.093577 0.152086 1.695144
-0.084244 0.152029 1.694508
-0.074857 0.151847 1.692481
-0.065765 0.152299 1.697514
-0.056481 0.152382 1.698447
-0.047201 0.152509 1.699862
-0.038011 0.153064 1.706043
-0.028820 0.153970 1.716139
-0.019519 0.154888 1.726379
-0.010085 0.155488 1.733067
-0.000577 0.155972 1.738453
0.008991 0.156482 1.744145
0.018661 0.157322 1.753508
0.028398 0.157961 1.760622
0.038354 0.159189 1.774313
0.048579 0.160807 1.792342
0.059662 0.164243 1.830640
0.128257 0.162069 1.806419
0.136452 0.160055 1.783971
0.144913 0.158603 1.767780
0.153606 0.157570 1.756263
0.163210 0.157538 1.755911
0.173636 0.158259 1.763945
0.187208 0.161620 1.801404
-0.379352 0.168509 1.769947
-0.365850 0.166782 1.751803
-0.355368 0.166374 1.747525
-0.347043 0.166982 1.753910
-0.339949 0.168235 1.767063
-0.334004 0.170145 1.787131
-0.326618 0.171415 1.800473
-0.246547 0.170699 1.792944
-0.233196 0.168165 1.766335
-0.221892 0.166952 1.753591
-0.211413 0.166279 1.746519
-0.201040 0.165628 1.739681
-0.190909 0.165122 1.734370
-0.180822 0.164603 1.728917
-0.170786 0.164075 1.723370
-0.160584 0.163317 1.715410
-0.150563 0.162659 1.708496
-0.140788 0.162198 1.703653
-0.131171 0.161866 1.700168
-0.121594 0.161537 1.696716
-0.112394 0.161695 1.698378
-0.102987 0.161558 1.696933
-0.093645 0.161505 1.696373
-0.084235 0.161310 1.694334
-0.074937 0.161306 1.694291
-0.065813 0.161732 1.698766
-0.056558 0.161921 1.700751
-0.047366 0.162401 1.705790
-0.038084 0.162736 1.709309
-0.028838 0.163489 1.717216
-0.019514 0.164319 1.725938
-0.010089 0.165066 1.733783
-0.000578 0.165626 1.739666
0.009003 0.166268 1.746412
0.018629 0.166651 1.750434
0.028387 0.167558 1.759955
0.038242 0.168431 1.769122
0.048550 0.170539 1.791270
0.059628 0.174188 1.829590
0.128945 0.172905 1.816122
0.136727 0.170187 1.787573
0.144712 0.168070 1.765330
0.153494 0.167084 1.754981
0.162560 0.166507 1.748912
0.173074 0.167394 1.758234
0.186651 0.170994 1.796051
-0.379300 0.178197 1.769706
-0.365150 0.176056 1.748448
-0.354626 0.175596 1.743878
-0.346879 0.176523 1.753082
-0.340163 0.178043 1.768176
-0.333142 0.179487 1.782520
-0.329910 0.183122 1.818623
-0.259835 0.182966 1.817071
-0.246086 0.180199 1.789592
-0.233069 0.177760 1.765372
-0.221837 0.176531 1.753160
-0.211200 0.175684 1.744754
-0.201097 0.175223 1.740178
-0.190764 0.174505 1.733045
-0.180484 0.173764 1.725682
-0.170773 0.173518 1.723242
-0.160748 0.172906 1.717160
-0.150998 0.172531 1.713442
-0.141167 0.172008 1.708248
-0.131290 0.171350 1.701713
-0.121751 0.171068 1.698911
-0.112521 0.171207 1.700290
-0.103161 0.171158 1.699801
-0.093658 0.170837 1.696617
-0.084338 0.170814 1.696389
-0.075105 0.170987 1.698106
-0.065903 0.171288 1.701093
-0.056680 0.171625 1.704437
-0.047449 0.172062 1.708782
-0.038108 0.172223 1.710378
-0.028895 0.173253 1.720606
-0.019525 0.173893 1.726964
-0.010067 0.174191 1.729926
-0.000577 0.175063 1.738586
0.009015 0.176092 1.748801
0.018600 0.175982 1.747706
0.028314 0.176761 1.755447
0.038251 0.178181 1.769551
0.048440 0.179960 1.787220
0.059176 0.182832 1.815736
0.136897 0.180219 1.789792
0.144653 0.177683 1.764606
0.153003 0.176149 1.749368
0.162169 0.175680 1.744709
0.172753 0.176713 1.754973
0.185698 0.179926 1.786881
-0.376947 0.186742 1.758727
-0.364226 0.185181 1.744026
-0.354214 0.184950 1.741851
-0.346027 0.185685 1.748778
-0.340541 0.187953 1.770137
-0.334775 0.190196 1.791259
-0.258161 0.191694 1.805364
-0.244712 0.188957 1.779595
-0.232311 0.186838 1.759634
-0.221145 0.185570 1.747692
-0.210937 0.185028 1.742585
-0.200676 0.184385 1.736535
-0.190763 0.184014 1.733042
-0.180562 0.183312 1.726427
-0.170706 0.182902 1.722565
-0.161027 0.182644 1.720139
-0.151035 0.181977 1.713858
-0.141272 0.181517 1.709519
-0.131428 0.180879 1.703510
-0.121890 0.180595 1.700838
-0.112640 0.180728 1.702090
-0.103152 0.180469 1.699648
-0.093816 0.180450 1.699468
-0.084579 0.180638 1.701244
-0.075239 0.180626 1.701134
-0.065963 0.180786 1.702640
-0.056731 0.181138 1.705954
-0.047494 0.181612 1.710413
-0.038195 0.182025 1.714307
-0.028891 0.182669 1.720372
-0.019512 0.183246 1.725806
-0.010089 0.184096 1.733814
-0.000578 0.184777 1.740221
0.008976 0.184885 1.741237
0.018572 0.185292 1.745079
0.028269 0.186097 1.752652
0.038074 0.187019 1.761339
0.048161 0.188675 1.776938
0.059053 0.192392 1.811945
0.137245 0.190524 1.794350
0.144699 0.187426 1.765171
0.152697 0.185376 1.745866
0.161885 0.184929 1.741656
0.172642 0.186224 1.753853
0.186867 0.190925 1.798129
-0.378465 0.197183 1.765811
-0.363937 0.194596 1.742643
-0.353210 0.193956 1.736911
-0.345711 0.195103 1.747183
-0.339632 0.197139 1.765416
-0.336440 0.201019 1.800168
-0.258007 0.201479 1.804282
-0.243600 0.197820 1.771513
-0.231703 0.195978 1.755022
-0.220592 0.194671 1.743317
-0.210412 0.194105 1.738247
-0.200237 0.193489 1.732731
-0.190624 0.193383 1.731777
-0.180330 0.192538 1.724211
-0.170732 0.192383 1.722824
-0.160919 0.191953 1.718980
-0.151389 0.191830 1.717871
-0.141384 0.191049 1.710876
-0.131661 0.190563 1.706531
-0.122221 0.190444 1.705462
-0.112737 0.190231 1.703553
-0.103258 0.189989 1.701387
-0.093784 0.189711 1.698894
-0.084670 0.190176 1.703065
-0.075283 0.190071 1.702123
-0.066064 0.190419 1.705241
-0.056780 0.190665 1.707438
-0.047560 0.191261 1.712781
-0.038236 0.191632 1.716104
-0.028920 0.192301 1.722088
-0.019521 0.192802 1.726583
-0.010084 0.193512 1.732939
-0.000576 0.193878 1.736210
0.008945 0.193752 1.735090
0.018512 0.194245 1.739503
0.028242 0.195527 1.750977
0.037983 0.196211 1.757109
0.047902 0.197356 1.767359
0.058712 0.201167 1.801487
0.137334 0.200499 1.795503
0.144425 0.196738 1.761827
0.152568 0.194792 1.744399
0.161438 0.193948 1.736844
0.172177 0.195320 1.749130
0.188174 0.202196 1.810700
-0.375179 0.205076 1.750478
-0.362717 0.203473 1.736797
-0.352105 0.202850 1.731480
-0.345617 0.204634 1.746705
-0.340199 0.207171 1.768361
-0.335654 0.210404 1.795961
-0.255633 0.209435 1.787682
-0.241841 0.206042 1.758721
-0.230698 0.204716 1.747410
-0.219909 0.203605 1.737924
-0.209441 0.202703 1.730223
-0.199934 0.202690 1.730114
-0.190138 0.202368 1.727365
-0.180124 0.201767 1.722235
-0.170475 0.201532 1.720228
-0.160589 0.200973 1.715460
-0.151009 0.200751 1.713564
-0.141468 0.200555 1.711891
-0.131671 0.199942 1.706658
-0.122350 0.200012 1.707257
-0.112753 0.199607 1.703799
-0.103306 0.199419 1.702191
-0.093907 0.199293 1.701119
-0.084773 0.199764 1.705139
-0.075355 0.199600 1.703740
-0.066058 0.199758 1.705088
-0.056800 0.200104 1.708043
-0.047585 0.200767 1.713700
-0.038248 0.201115 1.716671
-0.028897 0.201590 1.720722
-0.019501 0.202073 1.724845
-0.010055 0.202440 1.727975
-0.000575 0.202824 1.731255
0.008932 0.202989 1.732668
0.018491 0.203557 1.737514
0.028215 0.204938 1.749304
0.037906 0.205437 1.753560
0.047707 0.206211 1.760169
0.058401 0.209936 1.791960
0.138623 0.212325 1.812356
0.144488 0.206495 1.762591
0.152472 0.204234 1.743295
0.160972 0.202891 1.731832
0.170947 0.203454 1.736633
0.186682 0.210449 1.796343
-0.373445 0.213689 1.742389
-0.360567 0.211741 1.726504
-0.350416 0.211332 1.723171
-0.344334 0.213423 1.740220
-0.340329 0.216957 1.769036
-0.253431 0.217355 1.772280
-0.241569 0.215449 1.756738
-0.230610 0.214223 1.746746
-0.219280 0.212532 1.732952
-0.208862 0.211610 1.725441
-0.199366 0.211580 1.725194
-0.189415 0.211040 1.720793
-0.179786 0.210822 1.719011
-0.170591 0.211115 1.721403
-0.160752 0.210600 1.717203
-0.150866 0.209955 1.711945
-0.141364 0.209793 1.710624
-0.131824 0.209550 1.708639
-0.122295 0.209287 1.706497
-0.112917 0.209261 1.706281
-0.103385 0.208918 1.703491
-0.094033 0.208908 1.703404
-0.084776 0.209129 1.705206
-0.075526 0.209425 1.707622
-0.066173 0.209479 1.708066
-0.056893 0.209820 1.710840
-0.047592 0.210201 1.713951
-0.038311 0.210879 1.719477
-0.028882 0.210921 1.719823
-0.019476 0.211263 1.722606
-0.010027 0.211331 1.723165
-0.000573 0.211678 1.725996
0.008912 0.212018 1.728761
0.018493 0.213110 1.737666
0.028078 0.213492 1.740783
0.037868 0.214842 1.751791
0.047666 0.215686 1.758672
0.057854 0.217708 1.775163
0.068906 0.221934 1.809617
0.144447 0.216105 1.762092
0.152271 0.213518 1.740997
0.160586 0.211886 1.727684
0.169897 0.211674 1.725959
0.183981 0.217119 1.770361
-0.373461 0.223259 1.742461
-0.359980 0.220854 1.723693
-0.348673 0.219689 1.714603
-0.343723 0.222576 1.737135
-0.341295 0.227307 1.774058
-0.251100 0.224991 1.755979
-0.240561 0.224149 1.749410
-0.230321 0.223528 1.744560
-0.219391 0.222153 1.733828
-0.208739 0.220947 1.724422
-0.199046 0.220692 1.722429
-0.189372 0.220433 1.720403
-0.179664 0.220104 1.717843
-0.169985 0.219778 1.715292
-0.160464 0.219628 1.714120
-0.150874 0.219360 1.712032
-0.141064 0.218714 1.706992
-0.131493 0.218376 1.704349
-0.122063 0.218236 1.703262
-0.112737 0.218274 1.703556
-0.103192 0.217857 1.700300
-0.093978 0.218126 1.702399
-0.084772 0.218474 1.705119
-0.075505 0.218733 1.707135
-0.066153 0.218784 1.707535
-0.056782 0.218777 1.707479
-0.047546 0.219392 1.712284
-0.038231 0.219856 1.715904
-0.028838 0.220025 1.717219
-0.019466 0.220602 1.721726
-0.010012 0.220454 1.720569
-0.000572 0.220598 1.721697
0.008889 0.220930 1.724289
0.018440 0.222012 1.732727
0.028070 0.222984 1.740320
0.037803 0.224070 1.748790
0.047520 0.224643 1.753261
0.057506 0.226083 1.764505
0.068448 0.230320 1.797575
0.144747 0.226244 1.765758
0.151495 0.221935 1.732132
0.159973 0.220520 1.721089
0.169708 0.220899 1.724047
0.183063 0.225701 1.761524
-0.369569 0.230394 1.724304
-0.358671 0.229475 1.717427
-0.348414 0.228927 1.713328
-0.342086 0.231003 1.728861
-0.339373 0.235707 1.764070
-0.251033 0.234564 1.755516
-0.240284 0.233479 1.747394
-0.229435 0.232203 1.737847
-0.218786 0.231027 1.729044
-0.208699 0.230366 1.724092
-0.198711 0.229756 1.719530
-0.188940 0.229348 1.716480
-0.179517 0.229342 1.716436
-0.169833 0.228984 1.713754
-0.160514 0.229105 1.714659
-0.150753 0.228570 1.710652
-0.141189 0.228283 1.708506
-0.131587 0.227890 1.705566
-0.121748 0.226995 1.698863
-0.112322 0.226784 1.697287
-0.103133 0.227057 1.699328
-0.093910 0.227303 1.701170
-0.084677 0.227577 1.703223
-0.075379 0.227720 1.704296
-0.065945 0.227437 1.702174
-0.056840 0.228382 1.709247
-0.047605 0.229072 1.714408
-0.038198 0.229071 1.714407
-0.028806 0.229195 1.715333
-0.019456 0.229926 1.720799
-0.010012 0.229896 1.720580
-0.000572 0.230057 1.721781
0.008888 0.230358 1.724038
0.018405 0.231079 1.729433
0.028044 0.232316 1.738687
0.037753 0.233357 1.746478
0.047536 0.234342 1.753856
0.057438 0.235484 1.762403
0.067987 0.238568 1.785481
0.144165 0.234984 1.758656
0.150859 0.230467 1.724855
0.159747 0.229639 1.718655
0.169158 0.229612 1.718451
0.182740 0.234952 1.758419
-0.367627 0.238595 1.715246
-0.357745 0.238282 1.712994
-0.347887 0.237968 1.710735
-0.340341 0.239262 1.720040
-0.337560 0.244076 1.754645
-0.262271 0.245701 1.766326
-0.250813 0.243983 1.753978
-0.239633 0.242409 1.742660
-0.228707 0.240972 1.732330
-0.218171 0.239839 1.724191
-0.208222 0.239278 1.720157
-0.198400 0.238816 1.716834
-0.188695 0.238457 1.714253
-0.179198 0.238337 1.713388
-0.169855 0.238418 1.713971
-0.160541 0.238554 1.714951
-0.150833 0.238084 1.711569
-0.140828 0.237051 1.704146
-0.131441 0.236985 1.703669
-0.121764 0.236347 1.699080
-0.112422 0.236307 1.698794
-0.103076 0.236252 1.698401
-0.093810 0.236386 1.699364
-0.084464 0.236325 1.698924
-0.075169 0.236410 1.699535
-0.065918 0.236678 1.701464
-0.056827 0.237705 1.708848
-0.047523 0.238070 1.711470
-0.038244 0.238766 1.716472
-0.028849 0.238961 1.717873
-0.019435 0.239116 1.718988
-0.010008 0.239240 1.719878
-0.000571 0.239249 1.719948
0.008886 0.239773 1.723712
0.018372 0.240138 1.726340
0.027963 0.241161 1.733693
0.037633 0.242167 1.740923
0.047418 0.243362 1.749516
0.057365 0.244843 1.760163
0.067735 0.247444 1.778861
0.079496 0.253831 1.824774
0.143394 0.243326 1.749251
0.150250 0.238963 1.717893
0.158774 0.237614 1.708189
0.168520 0.238140 1.711972
0.180893 0.242128 1.740639
-0.375036 0.246690 1.706134
-0.367239 0.247745 1.713434
-0.356588 0.246880 1.707452
-0.346232 0.246178 1.702599
-0.338436 0.247309 1.710415
-0.333721 0.250818 1.734688
-0.262123 0.255248 1.765327
-0.250033 0.252818 1.748519
-0.238503 0.250783 1.734442
-0.227973 0.249673 1.726768
-0.217814 0.248892 1.721364
-0.207850 0.248272 1.717082
-0.198253 0.248053 1.715562
-0.188505 0.247614 1.712525
-0.179085 0.247582 1.712306
-0.169823 0.247777 1.713656
-0.160212 0.247455 1.711428
-0.150683 0.247228 1.709860
-0.141041 0.246774 1.706718
-0.131326 0.246118 1.702182
-0.121797 0.245738 1.699552
-0.112259 0.245274 1.696342
-0.103051 0.245511 1.697984
-0.093706 0.245438 1.697479
-0.084363 0.245355 1.696904
-0.075135 0.245627 1.698789
-0.065840 0.245724 1.699456
-0.056798 0.246956 1.707975
-0.047515 0.247420 1.711187
-0.038219 0.248024 1.715364
-0.028885 0.248703 1.720059
-0.019447 0.248702 1.720053
-0.010011 0.248753 1.720405
-0.000571 0.248673 1.719853
0.008876 0.248943 1.721721
0.018341 0.249195 1.723461
0.027875 0.249884 1.728230
0.037514 0.250926 1.735431
0.047276 0.252206 1.744286
0.057209 0.253809 1.755376
0.067521 0.256393 1.773243
0.078332 0.259981 1.798060
0.142467 0.251287 1.737934
0.149652 0.247402 1.711060
0.158487 0.246540 1.705102
0.168309 0.247225 1.709835
0.179176 0.249291 1.724123
-0.367552 0.257366 1.714893
-0.355986 0.255817 1.704570
-0.345393 0.254902 1.698474
-0.337765 0.256185 1.707023
-0.331547 0.258641 1.723389
-0.260741 0.263538 1.756020
-0.248960 0.261287 1.741020
-0.238214 0.259985 1.732345
-0.227629 0.258757 1.724166
-0.217424 0.257874 1.718280
-0.207516 0.257280 1.714324
-0.197604 0.256623 1.709946
-0.187897 0.256182 1.707006
-0.178815 0.256590 1.709723
-0.169707 0.257005 1.712487
-0.160028 0.256551 1.709464
-0.150818 0.256840 1.711390
-0.141380 0.256754 1.710819
-0.131491 0.255780 1.704328
-0.121819 0.255109 1.699857
-0.112458 0.255032 1.699340
-0.103106 0.254965 1.698893
-0.093585 0.254424 1.695291
-0.084353 0.254634 1.696691
-0.075079 0.254759 1.697522
-0.065844 0.255064 1.699558
-0.056789 0.256288 1.707714
-0.047509 0.256776 1.710962
-0.038193 0.257264 1.714216
-0.028876 0.258052 1.719467
-0.019433 0.257955 1.718817
-0.010004 0.257996 1.719093
-0.000571 0.257916 1.718558
0.008856 0.257813 1.717870
0.018309 0.258191 1.720394
0.027797 0.258641 1.723389
0.037332 0.259188 1.727038
0.047060 0.260580 1.736310
0.057041 0.262667 1.750214
0.067274 0.265147 1.766739
0.078289 0.269697 1.797062
0.141104 0.258328 1.721307
0.148787 0.255305 1.701160
0.157962 0.255048 1.699450
0.168459 0.256835 1.711356
0.179226 0.258823 1.724602
-0.367080 0.266433 1.712692
-0.355120 0.264525 1.700424
-0.345397 0.264224 1.698493
-0.337050 0.264989 1.703409
-0.330401 0.267171 1.717432
-0.328246 0.273221 1.756326
-0.260379 0.272794 1.753581
-0.248216 0.270030 1.735812
-0.237262 0.268414 1.725422
-0.226882 0.267338 1.718506
-0.216457 0.266114 1.710639
-0.206909 0.265907 1.709308
-0.197541 0.265922 1.709408
-0.187861 0.265497 1.706673
-0.178968 0.266199 1.711183
-0.169900 0.266704 1.714432
-0.160168 0.266163 1.710956
-0.150833 0.266258 1.711567
-0.141587 0.266532 1.713330
-0.131832 0.265819 1.708741
-0.121734 0.264251 1.698663
-0.112319 0.264030 1.697246
-0.103054 0.264154 1.698042
-0.093621 0.263826 1.695933
-0.084403 0.264101 1.697701
-0.075106 0.264166 1.698117
-0.065957 0.264844 1.702476
-0.056881 0.266086 1.710463
-0.047654 0.266973 1.716161
-0.038298 0.267403 1.718925
-0.028866 0.267396 1.718880
-0.019464 0.267809 1.721533
-0.010004 0.267444 1.719187
-0.000571 0.267396 1.718879
0.008848 0.267009 1.716391
0.018270 0.267062 1.716735
0.027729 0.267438 1.719149
0.037217 0.267833 1.721693
0.046875 0.269046 1.729487
0.056789 0.271068 1.742485
0.067121 0.274219 1.762739
0.078401 0.279958 1.799629
0.133692 0.271910 1.747895
0.140356 0.266354 1.712183
0.148775 0.264618 1.701023
0.157966 0.264380 1.699491
0.167984 0.265475 1.706531
0.179561 0.268787 1.727826
-0.365928 0.274965 1.707315
-0.354102 0.273070 1.695548
-0.344021 0.272454 1.691725
-0.335590 0.273148 1.696030
-0.328332 0.274863 1.706679
-0.320993 0.276607 1.717513
-0.259347 0.281297 1.746634
-0.247558 0.278813 1.731210
-0.236455 0.276935 1.719547
-0.226459 0.276251 1.715303
-0.216250 0.275237 1.709006
-0.206413 0.274626 1.705208
-0.197157 0.274767 1.706084
-0.188065 0.275160 1.708529
-0.178867 0.275434 1.710225
-0.169542 0.275528 1.710813
-0.160287 0.275756 1.712229
-0.150872 0.275720 1.712002
-0.141697 0.276147 1.714653
-0.131941 0.275423 1.710158
-0.121984 0.274134 1.702154
-0.112517 0.273824 1.700230
-0.102896 0.273052 1.695434
-0.093395 0.272474 1.691845
-0.084211 0.272796 1.693848
-0.075040 0.273244 1.696627
-0.066087 0.274727 1.705838
-0.056972 0.275914 1.713206
-0.047757 0.276990 1.719887
-0.038343 0.277154 1.720908
-0.028904 0.277190 1.721133
-0.019479 0.277475 1.722903
-0.010002 0.276822 1.718848
-0.000570 0.276635 1.717686
0.008837 0.276067 1.714155
0.018238 0.275992 1.713691
0.027688 0.276467 1.716642
0.037123 0.276584 1.717370
0.046737 0.277716 1.724398
0.056529 0.279345 1.734509
0.066835 0.282679 1.755215
0.078162 0.288952 1.794162
0.131293 0.276450 1.716533
0.139461 0.273992 1.701273
0.148061 0.272637 1.692859
0.157468 0.272842 1.694130
0.167456 0.273974 1.701162
0.178792 0.277076 1.720424
-0.364047 0.282872 1.698538
-0.352409 0.281023 1.687440
-0.342864 0.280789 1.686035
-0.333660 0.280830 1.686278
-0.326004 0.282212 1.694578
-0.319336 0.284556 1.708652
-0.316095 0.290188 1.742469
-0.258581 0.290022 1.741472
-0.246669 0.287278 1.724995
-0.236065 0.285898 1.716711
-0.225832 0.284873 1.710557
-0.215966 0.284241 1.706764
-0.206209 0.283702 1.703523
-0.196718 0.283495 1.702284
-0.187864 0.284232 1.706707
-0.178555 0.284320 1.707237
-0.169307 0.284521 1.708444
-0.160193 0.284984 1.711225
-0.151060 0.285471 1.714144
-0.141904 0.285973 1.717160
-0.132376 0.285745 1.715792
-0.122160 0.283883 1.704611
-0.112595 0.283350 1.701413
-0.102732 0.281903 1.692724
-0.093134 0.280971 1.687124
-0.084051 0.281553 1.690621
-0.075110 0.282818 1.698214
-0.066105 0.284163 1.706291
-0.057132 0.286113 1.718003
-0.047860 0.287044 1.723590
-0.038408 0.287086 1.723846
-0.028973 0.287319 1.725245
-0.019460 0.286639 1.721161
-0.009997 0.286096 1.717903
-0.000568 0.285182 1.712409
0.008827 0.285158 1.712268
0.018240 0.285438 1.713947
0.027635 0.285338 1.713349
0.037043 0.285390 1.713663
0.046581 0.286217 1.718629
0.056405 0.288231 1.730720
0.066580 0.291195 1.748517
0.078037 0.298316 1.791276
0.130484 0.284107 1.705956
0.138816 0.282015 1.693397
0.147714 0.281267 1.688903
0.157106 0.281489 1.690239
0.167042 0.282609 1.696963
0.178437 0.285948 1.717012
-0.376465 0.294616 1.712632
-0.362772 0.291169 1.692592
-0.351431 0.289477 1.682759
-0.341570 0.288946 1.679671
-0.332918 0.289437 1.682527
-0.324862 0.290489 1.688642
-0.318027 0.292726 1.701645
-0.311760 0.295638 1.718572
-0.270442 0.302153 1.756447
-0.257401 0.298211 1.733529
-0.246065 0.296016 1.720769
-0.235440 0.294536 1.712169
-0.225046 0.293234 1.704598
-0.215483 0.292949 1.702942
-0.206180 0.293008 1.703285
-0.196833 0.293007 1.703279
-0.187654 0.293268 1.704798
-0.178537 0.293659 1.707068
-0.169501 0.294232 1.710401
-0.160350 0.294662 1.712901
-0.151074 0.294902 1.714295
-0.141810 0.295200 1.716027
-0.132658 0.295788 1.719446
-0.122519 0.294098 1.709620
-0.112679 0.292904 1.702682
-0.103037 0.292057 1.697755
-0.093077 0.290050 1.686086
-0.083814 0.290009 1.685849
-0.075128 0.292207 1.698627
-0.066322 0.294491 1.711903
-0.057160 0.295688 1.718862
-0.047893 0.296704 1.724770
-0.038425 0.296675 1.724600
-0.028966 0.296719 1.724854
-0.019435 0.295707 1.718971
-0.009979 0.295007 1.714904
-0.000569 0.294740 1.713353
0.008826 0.294509 1.712010
0.018232 0.294716 1.713214
0.027577 0.294114 1.709715
0.037048 0.294829 1.713870
0.046533 0.295342 1.716852
0.056279 0.297062 1.726853
0.066377 0.299872 1.743184
0.077260 0.305079 1.773457
0.122168 0.295999 1.720670
0.129698 0.291700 1.695680
0.138255 0.290130 1.686557
0.147424 0.289962 1.685580
0.156544 0.289724 1.684196
0.166470 0.290921 1.691151
0.177819 0.294345 1.711059
-0.377044 0.304482 1.715269
-0.361719 0.299584 1.687679
-0.350078 0.297561 1.676282
-0.340600 0.297316 1.674900
-0.331902 0.297758 1.677392
-0.324149 0.299096 1.684931
-0.316717 0.300819 1.694638
-0.310653 0.303985 1.712470
-0.269928 0.311198 1.753106
-0.256179 0.306262 1.725300
-0.245189 0.304371 1.714647
-0.235076 0.303461 1.709519
-0.225016 0.302548 1.704375
-0.215563 0.302405 1.703573
-0.206081 0.302209 1.702466
-0.196613 0.302015 1.701374
-0.187256 0.301981 1.701184
-0.178260 0.302555 1.704414
-0.169281 0.303223 1.708181
-0.160086 0.303562 1.710087
-0.150925 0.304010 1.712612
-0.141833 0.304666 1.716306
-0.132737 0.305405 1.720474
-0.123068 0.304838 1.717276
-0.112841 0.302682 1.705131
-0.103065 0.301454 1.698216
-0.093021 0.299119 1.685062
-0.083560 0.298354 1.680750
-0.074979 0.300927 1.695243
-0.066447 0.304455 1.715119
-0.057404 0.306421 1.726192
-0.047902 0.306226 1.725095
-0.038395 0.305901 1.723266
-0.028909 0.305576 1.721436
-0.019411 0.304755 1.716810
-0.009972 0.304199 1.713676
-0.000568 0.303681 1.710756
0.008814 0.303488 1.709672
0.018192 0.303449 1.709450
0.027545 0.303144 1.707736
0.036966 0.303562 1.710088
0.046501 0.304557 1.715694
0.056115 0.305641 1.721800
0.066077 0.308041 1.735323
0.077155 0.314382 1.771040
0.121294 0.303254 1.708352
0.129036 0.299467 1.687021
0.137865 0.298540 1.681796
0.146893 0.298134 1.679513
0.156301 0.298501 1.681577
0.166073 0.299483 1.687111
0.176962 0.302272 1.702819
0.190027 0.308309 1.736830
-0.374045 0.311396 1.701624
-0.360236 0.307578 1.680760
-0.349345 0.306116 1.672768
-0.339256 0.305297 1.668293
-0.331292 0.306398 1.674308
-0.323219 0.307457 1.680100
-0.314969 0.308406 1.685285
-0.308864 0.311576 1.702604
-0.269329 0.320106 1.749215
-0.255786 0.315244 1.722652
-0.244883 0.313388 1.712507
-0.234619 0.312233 1.706195
-0.224590 0.311309 1.701144
-0.214889 0.310779 1.698248
-0.205774 0.311086 1.699929
-0.196483 0.311145 1.700248
-0.187451 0.311639 1.702948
-0.178131 0.311682 1.703184
-0.169094 0.312252 1.706298
-0.159848 0.312480 1.707545
-0.151067 0.313701 1.714219
-0.141967 0.314379 1.717923
-0.132836 0.315080 1.721754
-0.123096 0.314334 1.717674
-0.112839 0.312033 1.705104
-0.103182 0.311125 1.700142
-0.093030 0.308398 1.685240
-0.083403 0.306997 1.677583
-0.074566 0.308519 1.685902
-0.066570 0.314450 1.718308
-0.057525 0.316561 1.729847
-0.047948 0.315999 1.726775
-0.038430 0.315645 1.724841
-0.028925 0.315202 1.722417
-0.019432 0.314527 1.718728
-0.009973 0.313634 1.713848
-0.000567 0.312680 1.708640
0.008791 0.312080 1.705360
0.018202 0.313001 1.710390
0.027551 0.312591 1.708152
0.036930 0.312639 1.708417
0.046448 0.313609 1.713715
0.056049 0.314719 1.719781
0.065906 0.316740 1.730825
0.076853 0.322832 1.764114
0.120277 0.310006 1.694028
0.128308 0.306982 1.677504
0.137287 0.306479 1.674754
0.146195 0.305890 1.671534
0.155736 0.306617 1.675505
0.165619 0.307898 1.682506
0.176263 0.310383 1.696088
0.188744 0.315693 1.725104
-0.370477 0.317674 1.685394
-0.358739 0.315484 1.673775
-0.348975 0.314961 1.670999
-0.338796 0.314025 1.666033
-0.331241 0.315536 1.674051
-0.322480 0.315952 1.676259
-0.313267 0.315937 1.676178
-0.306965 0.318945 1.692138
-0.267156 0.327045 1.735108
-0.254661 0.323268 1.715071
-0.243895 0.321482 1.705595
-0.233897 0.320606 1.700945
-0.224163 0.320033 1.697910
-0.214527 0.319558 1.695386
-0.205608 0.320156 1.698561
-0.196413 0.320360 1.699645
-0.187175 0.320511 1.700444
-0.177979 0.320754 1.701735
-0.169048 0.321526 1.705829
-0.160048 0.322252 1.709680
-0.151033 0.323036 1.713838
-0.141747 0.323304 1.715263
-0.132645 0.324062 1.719282
-0.122525 0.322256 1.709700
-0.112351 0.320000 1.697732
-0.102932 0.319676 1.696016
-0.092933 0.317314 1.683482
-0.083334 0.315940 1.676192
-0.074360 0.316894 1.681253
-0.066402 0.323060 1.713968
-0.057519 0.326018 1.729661
-0.047894 0.325108 1.724833
-0.038372 0.324617 1.722230
-0.028908 0.324457 1.721379
-0.019423 0.323800 1.717892
-0.009960 0.322626 1.711664
-0.000567 0.321781 1.707183
0.008794 0.321519 1.705790
0.018171 0.321827 1.707425
0.027525 0.321660 1.706540
0.036926 0.321976 1.708214
0.046420 0.322816 1.712676
0.056018 0.323979 1.718844
0.065866 0.326038 1.729767
0.076602 0.331423 1.758338
0.120111 0.318863 1.691700
0.128014 0.315462 1.673659
0.137104 0.315246 1.672511
0.146146 0.314956 1.670972
0.155058 0.314434 1.668203
0.165001 0.315947 1.676227
0.175351 0.318036 1.687314
0.187472 0.322967 1.713475
-0.369066 0.325677 1.678973
-0.358415 0.324376 1.672265
-0.347857 0.323092 1.665646
-0.339282 0.323630 1.668423
-0.332143 0.325606 1.678610
-0.323531 0.326210 1.681724
-0.313153 0.325016 1.675568
-0.306310 0.327530 1.688528
-0.265710 0.334743 1.725711
-0.254289 0.332193 1.712567
-0.243623 0.330472 1.703693
-0.233327 0.329136 1.696806
-0.223964 0.329058 1.696406
-0.214601 0.328974 1.695973
-0.205264 0.328926 1.695722
-0.196129 0.329209 1.697184
-0.186971 0.329482 1.698592
-0.178010 0.330149 1.702031
-0.168972 0.330737 1.705062
-0.160124 0.331791 1.710496
-0.150824 0.331979 1.711465
-0.141610 0.332395 1.713607
-0.132393 0.332861 1.716011
-0.122449 0.331433 1.708647
-0.112328 0.329247 1.697378
-0.103069 0.329421 1.698275
-0.092827 0.326177 1.681550
-0.083225 0.324714 1.674009
-0.074281 0.325771 1.679461
-0.066333 0.332117 1.712175
-0.057474 0.335242 1.728285
-0.047983 0.335194 1.728037
-0.038440 0.334664 1.725303
-0.028901 0.333826 1.720984
-0.019408 0.332977 1.716607
-0.009965 0.332160 1.712398
-0.000566 0.330997 1.706403
0.008791 0.330786 1.705311
0.018150 0.330814 1.705456
0.027514 0.330887 1.705835
0.036891 0.331041 1.706630
0.046365 0.331821 1.710648
0.055980 0.333182 1.717664
0.065752 0.334949 1.726774
0.076072 0.338714 1.746184
0.088686 0.350706 1.808005
0.120150 0.328252 1.692247
0.127944 0.324468 1.672740
0.137538 0.325452 1.677816
0.146257 0.324370 1.672236
0.154915 0.323290 1.666670
0.164613 0.324379 1.672283
0.174710 0.326099 1.681151
0.185687 0.329205 1.697161
-0.384155 0.340092 1.705056
-0.368625 0.334489 1.676966
-0.357562 0.332757 1.668282
-0.346366 0.330807 1.658507
-0.338416 0.331935 1.664163
-0.331957 0.334629 1.677669
-0.325407 0.337383 1.691475
-0.313702 0.334796 1.678505
-0.305407 0.335802 1.683546
-0.357338 0.418200 2.096654
-0.281338 0.351916 1.764336
-0.266235 0.344892 1.729123
-0.254141 0.341392 1.711573
-0.243591 0.339776 1.703469
-0.233016 0.337995 1.694543
-0.223670 0.337923 1.694182
-0.214223 0.337685 1.692990
-0.204861 0.337565 1.692385
-0.195881 0.338095 1.695042
-0.186728 0.338362 1.696380
-0.177730 0.338955 1.699353
-0.168981 0.340111 1.705153
-0.160198 0.341334 1.711285
-0.150696 0.341079 1.710006
-0.141695 0.342003 1.714635
-0.132526 0.342622 1.717740
-0.122881 0.342011 1.714676
-0.112530 0.339169 1.700428
-0.102926 0.338269 1.695917
-0.092831 0.335420 1.681635
-0.083290 0.334159 1.675311
-0.074301 0.335077 1.679912
-0.066157 0.340608 1.707641
-0.057473 0.344722 1.728269
-0.047981 0.344660 1.727957
-0.038449 0.344205 1.725677
-0.028882 0.343048 1.719876
-0.019427 0.342725 1.718257
-0.009977 0.341992 1.714583
-0.000567 0.340807 1.708639
0.008784 0.339870 1.703946
0.018118 0.339582 1.702497
0.027464 0.339627 1.702725
0.036877 0.340274 1.705970
0.046394 0.341426 1.711742
0.055972 0.342560 1.717428
0.065530 0.343264 1.720961
0.075708 0.346627 1.737822
0.087594 0.356183 1.785728
0.119816 0.336598 1.687537
0.127860 0.333428 1.671645
0.139614 0.339708 1.703133
0.146498 0.334096 1.674996
0.154653 0.331872 1.663845
0.164267 0.332854 1.668771
0.175215 0.336292 1.686005
0.186674 0.340318 1.706188
-0.495941 0.420417 2.051335
-0.497446 0.431486 2.105345
-0.381803 0.347308 1.694617
-0.369362 0.344378 1.680321
-0.358399 0.342712 1.672188
-0.346633 0.340169 1.659784
-0.338471 0.341122 1.664434
-0.332390 0.344283 1.679857
-0.326071 0.347371 1.694924
-0.312898 0.343124 1.674201
-0.304913 0.344482 1.680827
-0.301056 0.350733 1.711325
-0.351428 0.422598 2.061979
-0.341828 0.424729 2.072374
-0.284165 0.365231 1.782067
-0.264714 0.352356 1.719248
-0.252667 0.348749 1.701647
-0.243000 0.348276 1.699338
-0.232771 0.346928 1.692762
-0.223381 0.346770 1.691993
-0.213944 0.346523 1.690784
-0.204460 0.346172 1.689073
-0.195544 0.346797 1.692120
-0.186495 0.347237 1.694269
-0.177406 0.347644 1.696254
-0.168635 0.348753 1.701668
-0.159765 0.349777 1.706661
-0.150760 0.350612 1.710735
-0.141756 0.351562 1.715370
-0.132651 0.352378 1.719356
-0.123267 0.352521 1.720052
-0.113274 0.350805 1.711677
-0.103134 0.348279 1.699355
-0.092760 0.344383 1.680343
-0.083093 0.342542 1.671359
-0.074100 0.343366 1.675380
-0.065974 0.349010 1.702917
-0.057449 0.354057 1.727547
-0.047949 0.353903 1.726794
-0.038365 0.352899 1.721897
-0.028857 0.352172 1.718346
-0.019416 0.351958 1.717304
-0.009958 0.350726 1.711293
-0.000567 0.350066 1.708070
0.008786 0.349282 1.704249
0.018098 0.348524 1.700550
0.027406 0.348240 1.699164
0.036844 0.349321 1.704440
0.046298 0.350093 1.708204
0.055765 0.350678 1.711057
0.065518 0.352641 1.720636
0.075760 0.356407 1.739014
0.087745 0.366613 1.788812
0.119565 0.345132 1.683998
0.127718 0.342221 1.669793
0.139549 0.348892 1.702343
0.146694 0.343746 1.677233
0.154620 0.340929 1.663491
0.164435 0.342360 1.670474
0.175781 0.346660 1.691456
0.189757 0.355455 1.734365
-0.499878 0.435100 2.067621
-0.486593 0.433372 2.059409
-0.370255 0.354453 1.684381
-0.358234 0.351726 1.671421
-0.346639 0.349283 1.659811
-0.338152 0.349925 1.662862
-0.335256 0.356548 1.694339
-0.331295 0.362386 1.722077
-0.312502 0.351865 1.672084
-0.304249 0.352934 1.677164
-0.298337 0.356870 1.695869
-0.353172 0.436065 2.072209
-0.340559 0.434481 2.064681
-0.264264 0.361175 1.716324
-0.252623 0.358023 1.701347
-0.242403 0.356722 1.695166
-0.232660 0.356046 1.691953
-0.223179 0.355732 1.690461
-0.213559 0.355160 1.687743
-0.204356 0.355261 1.688220
-0.195127 0.355322 1.688513
-0.186389 0.356330 1.693302
-0.177494 0.357127 1.697088
-0.168670 0.358165 1.702020
-0.159608 0.358788 1.704981
-0.150696 0.359847 1.710014
-0.142002 0.361601 1.718349
-0.132697 0.361939 1.719955
-0.123606 0.362956 1.724788
-0.114404 0.363790 1.728751
-0.104515 0.362390 1.722100
-0.092962 0.354371 1.683992
-0.083094 0.351716 1.671377
-0.073969 0.351935 1.672415
-0.066090 0.358984 1.705912
-0.057627 0.364663 1.732902
-0.047946 0.363356 1.726688
-0.038416 0.362836 1.724220
-0.028852 0.361538 1.718049
-0.019368 0.360481 1.713028
-0.009963 0.360280 1.712074
-0.000567 0.359584 1.708763
0.008781 0.358456 1.703403
0.018103 0.357970 1.701095
0.027405 0.357552 1.699107
0.036751 0.357771 1.700150
0.046192 0.358639 1.704271
0.055713 0.359735 1.709481
0.065372 0.361275 1.716802
0.075489 0.364641 1.732796
0.087026 0.373346 1.774161
0.119067 0.352898 1.676990
0.127485 0.350740 1.666736
0.138834 0.356396 1.693614
0.147637 0.355219 1.688020
0.154763 0.350382 1.665035
0.164893 0.352506 1.675129
0.177170 0.358753 1.704813
-0.492896 0.450433 2.086087
-0.485968 0.454660 2.105666
-0.392727 0.376374 1.743101
-0.371362 0.364783 1.689419
-0.357562 0.360219 1.668282
-0.346665 0.358418 1.659939
-0.338019 0.358908 1.662211
-0.334828 0.365379 1.692178
-0.371991 0.417511 1.933619
-0.305002 0.363034 1.681318
-0.299948 0.368154 1.705032
-0.355359 0.450207 2.085041
-0.341466 0.446997 2.070177
-0.263907 0.370091 1.714003
-0.252527 0.367220 1.700703
-0.241905 0.365271 1.691679
-0.232601 0.365238 1.691527
-0.223038 0.364778 1.689394
-0.213396 0.364143 1.686454
-0.204291 0.364407 1.687678
-0.195223 0.364768 1.689348
-0.186092 0.365040 1.690608
-0.177335 0.366111 1.695569
-0.168545 0.367232 1.700761
-0.159776 0.368531 1.706777
-0.151081 0.370172 1.714378
-0.142302 0.371812 1.721973
-0.132954 0.372096 1.723287
-0.123786 0.372964 1.727307
-0.115071 0.375453 1.738834
-0.105940 0.376910 1.745581
-0.094028 0.367784 1.703319
-0.083471 0.362526 1.678964
-0.074318 0.362815 1.680305
-0.066493 0.370589 1.716308
-0.057805 0.375328 1.738255
-0.048039 0.373554 1.730040
-0.038391 0.372048 1.723064
-0.028862 0.371101 1.718679
-0.019390 0.370300 1.714969
-0.009963 0.369702 1.712200
-0.000567 0.368600 1.707097
0.008790 0.368158 1.705049
0.018099 0.367207 1.700644
0.027394 0.366715 1.698365
0.036747 0.367056 1.699944
0.046129 0.367487 1.701942
0.055622 0.368510 1.706681
0.065327 0.370440 1.715619
0.075476 0.374083 1.732490
0.086530 0.380899 1.764055
0.118913 0.361631 1.674820
0.127490 0.359900 1.666803
0.139885 0.368458 1.706439
0.147715 0.364672 1.688903
0.154542 0.359005 1.662659
0.164933 0.361785 1.675536
0.177293 0.368363 1.705998
-0.532504 0.476847 2.153691
-0.515806 0.472378 2.133504
-0.489221 0.458435 2.070533
-0.481699 0.462118 2.087168
-0.371897 0.374592 1.691854
-0.358559 0.370404 1.672937
-0.347138 0.368027 1.662203
-0.337321 0.367269 1.658780
-0.334629 0.374441 1.691173
-0.309107 0.377270 1.703947
-0.353369 0.459063 2.073367
-0.338534 0.454420 2.052399
-0.277910 0.385881 1.742841
-0.263383 0.378743 1.710601
-0.252362 0.376305 1.699590
-0.242037 0.374759 1.692607
-0.232516 0.374382 1.690905
-0.222581 0.373282 1.685934
-0.213215 0.373079 1.685019
-0.204243 0.373581 1.687285
-0.195416 0.374407 1.691017
-0.186401 0.374937 1.693410
-0.177406 0.375566 1.696252
-0.168401 0.376241 1.699301
-0.159559 0.377383 1.704459
-0.150949 0.379249 1.712885
-0.142022 0.380511 1.718586
-0.133153 0.382122 1.725861
-0.123994 0.383082 1.730198
-0.115163 0.385300 1.740217
-0.106163 0.387301 1.749254
-0.096110 0.385478 1.741020
-0.085275 0.379770 1.715238
-0.075951 0.380211 1.717231
-0.067394 0.385157 1.739568
-0.057952 0.385842 1.742664
-0.048066 0.383265 1.731027
-0.038466 0.382247 1.726427
-0.028907 0.381114 1.721311
-0.019419 0.380288 1.717578
-0.009973 0.379464 1.713858
-0.000568 0.378516 1.709574
0.008794 0.377698 1.705882
0.018095 0.376467 1.700320
0.027364 0.375633 1.696554
0.036720 0.376104 1.698682
0.046144 0.376951 1.702507
0.055573 0.377543 1.705179
0.065177 0.378983 1.711686
0.075303 0.382714 1.728534
0.086435 0.390148 1.762113
0.100484 0.407927 1.842412
0.119356 0.372202 1.681057
0.128080 0.370753 1.674515
0.139405 0.376527 1.700591
0.146934 0.371963 1.679980
0.154513 0.368057 1.662338
0.165063 0.371271 1.676852
-0.508314 0.466466 2.055853
-0.495975 0.476282 2.099116
-0.482754 0.474609 2.091741
-0.379472 0.391694 1.726312
-0.359838 0.380937 1.678903
-0.347321 0.377346 1.663078
-0.337694 0.376787 1.660611
-0.330994 0.379553 1.672803
-0.327613 0.386391 1.702939
-0.322810 0.391904 1.727236
-0.364034 0.469522 2.069323
-0.353527 0.470650 2.074296
-0.276297 0.393149 1.732725
-0.262662 0.387066 1.705916
-0.251848 0.384845 1.696127
-0.241597 0.383347 1.689523
-0.232349 0.383385 1.689691
-0.222609 0.382580 1.686141
-0.213051 0.382031 1.683724
-0.204020 0.382421 1.685444
-0.195169 0.383200 1.688874
-0.186311 0.384043 1.692591
-0.177228 0.384487 1.694547
-0.168221 0.385153 1.697485
-0.159580 0.386786 1.704682
-0.150980 0.388726 1.713232
-0.142143 0.390274 1.720055
-0.133192 0.391706 1.726363
-0.124048 0.392748 1.730958
-0.115181 0.394912 1.740493
-0.106203 0.397051 1.749921
-0.097375 0.400230 1.763934
-0.087845 0.400910 1.766930
-0.077791 0.399073 1.758833
-0.067865 0.397458 1.751717
-0.057963 0.395484 1.743017
-0.048205 0.393900 1.736033
-0.038546 0.392543 1.730055
-0.028927 0.390842 1.722555
-0.019412 0.389569 1.716947
-0.009977 0.389031 1.714576
-0.000567 0.387738 1.708876
0.008780 0.386444 1.703171
0.018075 0.385369 1.698436
0.027365 0.384953 1.696600
0.036672 0.384930 1.696499
0.046088 0.385822 1.700434
0.055638 0.387353 1.707179
0.065254 0.388832 1.713700
0.075074 0.391001 1.723258
0.085992 0.397767 1.753078
0.120873 0.386274 1.702424
0.128735 0.381886 1.683083
0.137838 0.381521 1.681476
0.145943 0.378610 1.668647
0.155236 0.378944 1.670120
0.167728 0.386615 1.703927
-0.488073 0.469134 2.018791
-0.489751 0.481679 2.072777
-0.478035 0.481334 2.071291
-0.354248 0.394180 1.696248
-0.344759 0.393972 1.695354
-0.332173 0.390116 1.678759
-0.321351 0.388171 1.670390
-0.316533 0.393577 1.693652
-0.312301 0.400060 1.721552
-0.350820 0.478341 2.058413
-0.274116 0.399479 1.719049
-0.261839 0.395186 1.700574
-0.251916 0.394259 1.696588
-0.241678 0.392750 1.690095
-0.231790 0.391712 1.685628
-0.222317 0.391318 1.683934
-0.213163 0.391476 1.684612
-0.204126 0.391872 1.686317
-0.195039 0.392206 1.687751
-0.186088 0.392861 1.690571
-0.177495 0.394379 1.697104
-0.168562 0.395268 1.700930
-0.159796 0.396675 1.706986
-0.150983 0.398134 1.713263
-0.142086 0.399553 1.719371
-0.133190 0.401175 1.726348
-0.124291 0.403033 1.734346
-0.115136 0.404303 1.739810
-0.106492 0.407759 1.754681
-0.097436 0.410167 1.765043
-0.088168 0.412116 1.773428
-0.078073 0.410206 1.765212
-0.067841 0.406929 1.751111
-0.058080 0.405861 1.746512
-0.048318 0.404369 1.740092
-0.038553 0.402103 1.730340
-0.028931 0.400347 1.722785
-0.019439 0.399540 1.719311
-0.009980 0.398546 1.715034
-0.000568 0.397393 1.710074
0.008774 0.395494 1.701901
0.018086 0.394933 1.699486
0.027416 0.394993 1.699748
0.036687 0.394394 1.697169
0.046103 0.395285 1.701004
0.055547 0.396070 1.704380
0.065148 0.397588 1.710911
0.074835 0.399186 1.717791
0.085389 0.404528 1.740779
0.099973 0.425973 1.833058
0.120812 0.395416 1.701568
0.128474 0.390329 1.679676
0.137356 0.389379 1.675590
0.146574 0.389443 1.675863
0.159548 0.398889 1.716513
-0.478213 0.460069 1.934112
-0.467009 0.481336 2.023519
-0.456985 0.482475 2.028310
-0.318027 0.404772 1.701647
-0.360218 0.487071 2.047628
-0.293498 0.423259 1.779364
-0.274294 0.409176 1.720162
-0.261833 0.404507 1.700532
-0.251395 0.402734 1.693081
-0.241346 0.401471 1.687772
-0.231250 0.400026 1.681696
-0.221877 0.399764 1.680596
-0.213091 0.400583 1.684038
-0.204126 0.401125 1.686316
-0.195407 0.402225 1.690938
-0.186177 0.402330 1.691380
-0.177246 0.403125 1.694725
-0.168485 0.404415 1.700148
-0.159792 0.406031 1.706941
-0.151124 0.407916 1.714863
-0.142106 0.409045 1.719610
-0.133033 0.410161 1.724304
-0.124344 0.412727 1.735089
-0.115466 0.415037 1.744800
-0.106927 0.419093 1.761853
-0.097738 0.421154 1.770517
-0.088427 0.423088 1.778648
-0.078119 0.420138 1.766246
-0.067988 0.417438 1.754896
-0.058143 0.415900 1.748428
-0.048350 0.414189 1.741237
-0.038618 0.412292 1.733261
-0.028973 0.410388 1.725257
-0.019465 0.409525 1.721628
-0.009974 0.407714 1.714015
-0.000567 0.406606 1.709356
0.008782 0.405232 1.703582
0.018075 0.403993 1.698373
0.027405 0.404161 1.699080
0.036669 0.403510 1.696342
0.046087 0.404476 1.700402
0.055507 0.405132 1.703162
0.065085 0.406583 1.709260
0.074955 0.409266 1.720540
0.085569 0.414955 1.744457
0.098637 0.430203 1.808560
-0.518140 0.509979 2.095593
-0.458838 0.507977 2.087367
-0.452864 0.514199 2.112934
-0.374119 0.517536 2.126648
-0.291817 0.430542 1.769172
-0.275241 0.420061 1.726104
-0.262348 0.414652 1.703877
-0.251361 0.411969 1.692852
-0.241283 0.410625 1.687331
-0.231316 0.409371 1.682177
-0.221788 0.408822 1.679922
-0.212780 0.409226 1.681581
-0.203870 0.409865 1.684206
-0.195011 0.410668 1.687509
-0.185960 0.411130 1.689408
-0.176955 0.411746 1.691935
-0.168496 0.413773 1.700268
-0.159750 0.415288 1.706493
-0.151061 0.417152 1.714151
-0.141997 0.418160 1.718293
-0.133138 0.419956 1.725675
-0.124404 0.422451 1.735925
-0.115694 0.425447 1.748237
-0.106854 0.428465 1.760639
-0.098003 0.432036 1.775313
-0.089293 0.437085 1.796059
-0.078327 0.430974 1.770949
-0.068168 0.428198 1.759540
-0.058146 0.425514 1.748512
-0.048440 0.424536 1.744492
-0.038711 0.422822 1.737450
-0.029027 0.420641 1.728488
-0.019472 0.419115 1.722217
-0.009989 0.417739 1.716562
-0.000568 0.416396 1.711046
0.008785 0.414711 1.704119
0.018068 0.413163 1.697759
0.027422 0.413745 1.700152
0.036672 0.412856 1.696498
0.045984 0.412878 1.696589
0.055458 0.414109 1.701648
0.065068 0.415851 1.708804
0.074961 0.418742 1.720684
0.085369 0.423532 1.740368
0.097961 0.437111 1.796167
-0.455502 0.491135 1.973661
-0.440072 0.524366 2.107199
-0.429506 0.525585 2.112098
-0.422244 0.531027 2.133970
-0.405683 0.524752 2.108750
-0.361346 0.495677 1.991912
-0.351798 0.497632 1.999767
-0.291656 0.440008 1.768201
-0.273412 0.426677 1.714630
-0.261721 0.422988 1.699807
-0.251546 0.421568 1.694098
-0.241343 0.419989 1.687753
-0.231568 0.419058 1.684012
-0.221889 0.418231 1.680689
-0.212625 0.418148 1.680354
-0.203794 0.418948 1.683570
-0.194842 0.419565 1.686051
-0.186007 0.420506 1.689832
-0.177049 0.421253 1.692834
-0.168634 0.423448 1.701656
-0.159949 0.425183 1.708627
-0.151220 0.427007 1.715955
-0.142205 0.428215 1.720810
-0.133366 0.430160 1.728628
-0.124533 0.432423 1.737721
-0.115821 0.435519 1.750164
-0.107064 0.438991 1.764115
-0.098587 0.444413 1.785903
-0.078885 0.443832 1.783567
-0.068319 0.438823 1.763438
-0.058259 0.435949 1.751892
-0.048412 0.433858 1.743487
-0.038743 0.432717 1.738902
-0.029110 0.431362 1.733456
-0.019495 0.429067 1.724236
-0.009989 0.427144 1.716509
-0.000567 0.425197 1.708683
0.008784 0.424024 1.703971
0.018078 0.422707 1.698675
0.027420 0.423031 1.699977
0.036694 0.422413 1.697494
0.046005 0.422388 1.697394
0.055497 0.423746 1.702851
0.065026 0.424954 1.707708
0.074859 0.427600 1.718340
0.085181 0.432132 1.736551
0.097991 0.447104 1.796716
-0.498263 0.524163 2.060940
-0.491601 0.529164 2.080605
-0.475766 0.524296 2.061462
-0.461064 0.520468 2.046411
-0.455456 0.526972 2.071984
-0.425352 0.504740 1.984572
-0.413424 0.517061 2.033017
-0.412029 0.529607 2.082345
-0.393039 0.519607 2.043025
-0.370374 0.504018 1.981733
-0.363527 0.509665 2.003935
-0.349592 0.505415 1.987227
-0.342213 0.510675 2.007909
-0.273874 0.436823 1.717529
-0.261459 0.431882 1.698105
-0.251063 0.430035 1.690842
-0.241033 0.428698 1.685583
-0.231389 0.427967 1.682710
-0.222071 0.427804 1.682070
-0.212664 0.427448 1.680670
-0.203902 0.428414 1.684468
-0.194740 0.428592 1.685166
-0.186071 0.429927 1.690415
-0.177225 0.430972 1.694525
-0.168558 0.432590 1.700885
-0.160000 0.434695 1.709162
-0.150931 0.435588 1.712675
-0.142343 0.438081 1.722477
-0.133380 0.439692 1.728812
-0.124621 0.442273 1.738958
-0.115934 0.445555 1.751863
-0.107317 0.449729 1.768273
-0.100102 0.461191 1.813343
-0.079233 0.455616 1.791423
-0.068525 0.449855 1.768769
-0.058418 0.446782 1.756687
-0.048518 0.444388 1.747276
-0.038800 0.442901 1.741430
-0.029142 0.441345 1.735311
-0.019521 0.439119 1.726556
-0.010001 0.437114 1.718676
-0.000568 0.435327 1.711649
0.008796 0.433977 1.706342
0.018117 0.432966 1.702366
0.027384 0.431801 1.697784
0.036702 0.431819 1.697856
0.046100 0.432591 1.700892
0.055557 0.433555 1.704682
0.065028 0.434342 1.707777
0.074859 0.437028 1.718335
0.085258 0.442058 1.738116
0.097814 0.456137 1.793470
-0.457481 0.515022 1.982234
-0.447063 0.515551 1.984270
-0.434634 0.513729 1.977257
-0.419957 0.509090 1.959402
-0.410747 0.511008 1.966783
-0.399771 0.510772 1.965877
-0.389565 0.511535 1.968813
-0.379493 0.512523 1.972615
-0.366950 0.510133 1.963415
-0.355960 0.509822 1.962221
-0.345017 0.509562 1.961218
-0.333993 0.509163 1.959681
-0.273978 0.446416 1.718180
-0.261507 0.441282 1.698419
-0.251298 0.439724 1.692423
-0.241166 0.438189 1.686516
-0.231479 0.437371 1.683368
-0.222166 0.437220 1.682788
-0.213095 0.437555 1.684074
-0.203874 0.437597 1.684238
-0.195062 0.438562 1.687952
-0.186056 0.439166 1.690274
-0.177383 0.440660 1.696028
-0.168852 0.442695 1.703859
-0.160268 0.444819 1.712033
-0.151095 0.445469 1.714537
-0.142269 0.447298 1.721575
-0.133436 0.449365 1.729530
-0.124667 0.451981 1.739598
-0.116158 0.456047 1.755250
-0.107711 0.461117 1.774761
-0.079024 0.464221 1.786707
-0.068767 0.461179 1.774999
-0.058519 0.457211 1.759729
-0.048593 0.454686 1.750010
-0.038841 0.452937 1.743278
-0.029138 0.450817 1.735120
-0.019516 0.448479 1.726122
-0.010000 0.446515 1.718562
-0.000569 0.445256 1.713714
0.008798 0.443405 1.706592
0.018126 0.442538 1.703254
0.027423 0.441735 1.700162
0.036731 0.441487 1.699211
0.046112 0.442042 1.701343
0.055539 0.442765 1.704127
0.065079 0.444057 1.709101
0.075036 0.447509 1.722386
0.085104 0.450777 1.734965
0.096877 0.461514 1.776288
-0.365873 0.519378 1.957654
-0.354985 0.519164 1.956847
-0.344201 0.519094 1.956585
-0.332827 0.518100 1.952837
-0.318483 0.512263 1.930838
-0.274229 0.456261 1.719753
-0.261478 0.450551 1.698230
-0.251255 0.448934 1.692136
-0.241391 0.447859 1.688085
-0.231761 0.447152 1.685418
-0.222206 0.446533 1.683087
-0.213027 0.446652 1.683534
-0.203839 0.446761 1.683945
-0.194857 0.447354 1.686182
-0.185784 0.447785 1.687803
-0.177402 0.450015 1.696210
-0.168655 0.451515 1.701865
-0.160222 0.454082 1.711539
-0.151619 0.456455 1.720485
-0.142696 0.458116 1.726744
-0.133906 0.460472 1.735624
-0.125166 0.463374 1.746562
-0.116742 0.468020 1.764075
-0.108361 0.473699 1.785482
-0.069489 0.475868 1.793654
-0.058777 0.468921 1.767470
-0.048806 0.466323 1.757679
-0.038950 0.463803 1.748179
-0.029186 0.461094 1.737967
-0.019551 0.458768 1.729203
-0.010028 0.457192 1.723263
-0.000570 0.455861 1.718246
0.008813 0.453543 1.709508
0.018157 0.452655 1.706162
0.027492 0.452213 1.704496
0.036744 0.450978 1.699838
0.046131 0.451553 1.702008
0.055664 0.453133 1.707963
0.065235 0.454525 1.713208
0.074897 0.456115 1.719202
0.084981 0.459635 1.732469
0.096781 0.470793 1.774528
-0.366321 0.530768 1.960047
-0.355765 0.531065 1.961146
-0.344592 0.530431 1.958804
-0.333211 0.529426 1.955091
-0.318583 0.523022 1.931443
-0.274479 0.466123 1.721322
-0.261806 0.460446 1.700360
-0.251502 0.458669 1.693796
-0.241008 0.456397 1.685407
-0.231588 0.456059 1.684157
-0.222395 0.456158 1.684523
-0.212997 0.455826 1.683300
-0.203587 0.455438 1.681864
-0.194877 0.456653 1.686352
-0.185732 0.456920 1.687337
-0.177172 0.458727 1.694013
-0.168691 0.460954 1.702235
-0.160489 0.464246 1.714393
-0.151827 0.466536 1.722848
-0.142694 0.467584 1.726721
-0.134237 0.471158 1.739918
-0.125656 0.474808 1.753395
-0.117055 0.478983 1.768813
-0.109353 0.487924 1.801831
-0.070467 0.492540 1.818877
-0.058970 0.480198 1.773300
-0.048898 0.476862 1.760983
-0.039000 0.473998 1.750404
-0.029191 0.470714 1.738278
-0.019571 0.468734 1.730966
-0.010015 0.466054 1.721068
-0.000570 0.464542 1.715486
0.008808 0.462665 1.708555
0.018158 0.462021 1.706176
0.027529 0.462178 1.706755
0.036808 0.461097 1.702765
0.046154 0.461131 1.702888
0.055670 0.462560 1.708168
0.065291 0.464325 1.714686
0.074972 0.466016 1.720929
0.085074 0.469656 1.734371
0.097066 0.481947 1.779758
-0.365547 0.540379 1.955906
-0.355103 0.540817 1.957495
-0.344272 0.540678 1.956988
-0.333198 0.540133 1.955015
-0.319457 0.535084 1.936742
-0.275447 0.477245 1.727395
-0.262097 0.470297 1.702246
-0.251778 0.468478 1.695659
-0.241010 0.465650 1.685423
-0.231353 0.464828 1.682449
-0.222214 0.465022 1.683152
-0.212852 0.464745 1.682150
-0.203640 0.464786 1.682299
-0.194624 0.465302 1.684164
-0.185875 0.466535 1.688629
-0.177503 0.468898 1.697183
-0.168819 0.470651 1.703525
-0.160335 0.473197 1.712742
-0.151752 0.475755 1.721999
-0.143214 0.478799 1.733019
-0.134542 0.481796 1.743866
-0.126068 0.486016 1.759139
-0.117591 0.490926 1.776911
-0.110107 0.501242 1.814249
-0.059315 0.492790 1.783659
-0.048988 0.487423 1.764232
-0.039027 0.483938 1.751619
-0.029196 0.480331 1.738564
-0.019577 0.478377 1.731491
-0.010018 0.475642 1.721592
-0.000569 0.473536 1.713969
0.008808 0.472052 1.708596
0.018158 0.471402 1.706244
0.027473 0.470581 1.703274
0.036750 0.469705 1.700102
0.046155 0.470481 1.702911
0.055581 0.471174 1.705418
