# .PCD v0.7 - Point Cloud Data file format
VERSION 0.7
FIELDS x y z
SIZE 4 4 4
TYPE F F F
COUNT 1 1 1
WIDTH 1728
HEIGHT 1
VIEWPOINT 0 0 0 1 0 0 0
POINTS 1728
DATA ascii
0.081456 -0.019358 2.139188
0.183585 -0.018995 2.099026
0.192522 -0.018744 2.071266
0.203798 -0.018735 2.070360
0.214069 -0.018641 2.059880
0.223655 -0.018499 2.044183
0.233972 -0.018428 2.036355
0.246048 -0.018496 2.043849
0.260573 -0.018733 2.070149
-0.391084 -0.007454 2.092549
-0.370648 -0.007278 2.043188
-0.359627 -0.007282 2.044272
-0.351237 -0.007341 2.060860
-0.342954 -0.007407 2.079199
-0.332266 -0.007423 2.083716
-0.322729 -0.007467 2.096037
-0.211901 -0.007617 2.138251
-0.196769 -0.007488 2.101948
-0.183663 -0.007424 2.084105
-0.170211 -0.007337 2.059701
-0.157825 -0.007287 2.045655
-0.145794 -0.007247 2.034392
-0.134190 -0.007223 2.027735
-0.122731 -0.007204 2.022249
-0.111133 -0.007171 2.013172
-0.099949 -0.007162 2.010397
-0.088865 -0.007157 2.009217
-0.077741 -0.007148 2.006657
-0.066673 -0.007142 2.004921
-0.055738 -0.007151 2.007308
-0.044731 -0.007152 2.007652
-0.033705 -0.007149 2.007026
-0.022704 -0.007153 2.008139
-0.011696 -0.007160 2.010007
-0.000669 -0.007176 2.014371
0.010405 -0.007190 2.018414
0.021590 -0.007227 2.028688
0.033001 -0.007288 2.046034
0.044507 -0.007334 2.058923
0.056364 -0.007408 2.079584
0.068268 -0.007462 2.094711
0.081224 -0.007599 2.133119
0.193874 -0.007430 2.085810
0.204281 -0.007393 2.075264
0.213191 -0.007308 2.051434
0.222308 -0.007238 2.031876
0.232932 -0.007222 2.027306
0.245313 -0.007259 2.037750
0.259591 -0.007347 2.062344
0.274219 -0.007436 2.087562
-0.387839 0.003994 2.075185
-0.369502 0.003921 2.036870
-0.357790 0.003915 2.033828
-0.349549 0.003948 2.050956
-0.343218 0.004005 2.080798
-0.333074 0.004021 2.088784
-0.327176 0.004090 2.124915
-0.212912 0.004136 2.148456
-0.196670 0.004044 2.100889
-0.183546 0.004009 2.082772
-0.170643 0.003975 2.064925
-0.158059 0.003943 2.048679
-0.146015 0.003922 2.037484
-0.134302 0.003906 2.029426
-0.122675 0.003891 2.021332
-0.111137 0.003875 2.013237
-0.100019 0.003872 2.011801
-0.088755 0.003863 2.006714
-0.077800 0.003865 2.008162
-0.066844 0.003869 2.010071
-0.055704 0.003861 2.006072
-0.044718 0.003863 2.007058
-0.033681 0.003861 2.005630
-0.022704 0.003865 2.008111
-0.011696 0.003869 2.009980
-0.000669 0.003879 2.014980
0.010434 0.003896 2.023926
0.021685 0.003922 2.037668
0.033030 0.003942 2.047834
0.044509 0.003963 2.059053
0.056091 0.003984 2.069519
0.068043 0.004019 2.087807
0.081064 0.004098 2.128908
0.204697 0.004003 2.079492
0.212278 0.003932 2.042641
0.221238 0.003892 2.022095
0.231606 0.003880 2.015763
0.244339 0.003907 2.029659
0.258884 0.003959 2.056732
0.270856 0.003969 2.061957
-0.383106 0.015194 2.049858
-0.367547 0.015017 2.026092
-0.355986 0.014999 2.023575
-0.347493 0.015112 2.038891
-0.343172 0.015421 2.080518
-0.337057 0.015667 2.113762
-0.212686 0.015907 2.146172
-0.196549 0.015562 2.099596
-0.182888 0.015382 2.075308
-0.170742 0.015314 2.066131
-0.158591 0.015236 2.055575
-0.146560 0.015158 2.045094
-0.134274 0.015039 2.029011
-0.122749 0.014991 2.022557
-0.111279 0.014941 2.015814
-0.099917 0.014896 2.009761
-0.088799 0.014881 2.007727
-0.077873 0.014898 2.010043
-0.066742 0.014876 2.006987
-0.055669 0.014860 2.004825
-0.044702 0.014871 2.006313
-0.033669 0.014860 2.004920
-0.022665 0.014859 2.004693
-0.011700 0.014903 2.010638
-0.000668 0.014924 2.013544
0.010425 0.014989 2.022258
0.021723 0.015130 2.041239
0.033073 0.015198 2.050512
0.044432 0.015235 2.055464
0.055989 0.015311 2.065726
0.068007 0.015466 2.086687
0.081207 0.015807 2.132656
0.203781 0.015344 2.070189
0.211019 0.015050 2.030530
0.220243 0.014920 2.013002
0.231259 0.014918 2.012748
0.243578 0.014997 2.023331
0.257022 0.015135 2.041934
0.269482 0.015206 2.051495
-0.401889 0.026947 2.089026
-0.380403 0.026255 2.035398
-0.366829 0.026084 2.022139
-0.354899 0.026023 2.017394
-0.345659 0.026161 2.028131
-0.341263 0.026688 2.068948
-0.213822 0.027832 2.157641
-0.196521 0.027079 2.099298
-0.182669 0.026738 2.072824
-0.170738 0.026651 2.066084
-0.159071 0.026595 2.061803
-0.146633 0.026393 2.046103
-0.134364 0.026190 2.030362
-0.122640 0.026066 2.020751
-0.111254 0.025996 2.015362
-0.099860 0.025909 2.008603
-0.088722 0.025875 2.005982
-0.077737 0.025883 2.006551
-0.066724 0.025881 2.006442
-0.055666 0.025859 2.004711
-0.044681 0.025868 2.005409
-0.033692 0.025879 2.006268
-0.022676 0.025871 2.005645
-0.011701 0.025937 2.010781
-0.000670 0.026050 2.019530
0.010462 0.026177 2.029345
0.021738 0.026348 2.042611
0.033084 0.026458 2.051147
0.044448 0.026523 2.056197
0.055977 0.026641 2.065301
0.067804 0.026836 2.080467
0.081127 0.027482 2.130550
0.202319 0.026512 2.055332
0.209821 0.026043 2.019004
0.219185 0.025841 2.003329
0.230006 0.025822 2.001839
0.242172 0.025949 2.011657
0.256425 0.026278 2.037192
0.270536 0.026566 2.059523
-0.394605 0.037713 2.051166
-0.378874 0.037273 2.027216
-0.365303 0.037025 2.013726
-0.353895 0.036987 2.011685
-0.344518 0.037167 2.021434
-0.339344 0.037826 2.057312
-0.211851 0.039305 2.137752
-0.196221 0.038539 2.096089
-0.182625 0.038102 2.072326
-0.170580 0.037952 2.064165
-0.159030 0.037899 2.061265
-0.146818 0.037668 2.048693
-0.134414 0.037345 2.031115
-0.122691 0.037169 2.021588
-0.111009 0.036973 2.010926
-0.099837 0.036922 2.008138
-0.088805 0.036917 2.007854
-0.077761 0.036904 2.007159
-0.066682 0.036868 2.005187
-0.055730 0.036901 2.007012
-0.044719 0.036903 2.007109
-0.033692 0.036888 2.006297
-0.022686 0.036892 2.006479
-0.011692 0.036941 2.009165
-0.000670 0.037133 2.019623
0.010471 0.037347 2.031247
0.021755 0.037585 2.044220
0.033068 0.037695 2.050195
0.044403 0.037768 2.054135
0.055854 0.037889 2.060743
0.067742 0.038217 2.078558
0.080846 0.039037 2.123171
0.201490 0.037635 2.046917
0.209328 0.037035 2.014258
0.218916 0.036788 2.000871
0.229461 0.036719 1.997100
0.241569 0.036895 2.006644
0.256046 0.037401 2.034183
0.272195 0.038099 2.072153
-0.389963 0.048392 2.027034
-0.375420 0.047955 2.008734
-0.363238 0.047803 2.002343
-0.352350 0.047816 2.002903
-0.344273 0.048224 2.019995
-0.339351 0.049116 2.057357
-0.340785 0.051021 2.137146
-0.210225 0.050644 2.121346
-0.196027 0.049991 2.094018
-0.182460 0.049429 2.070450
-0.170462 0.049244 2.062736
-0.158886 0.049165 2.059406
-0.146754 0.048888 2.047793
-0.134652 0.048575 2.034710
-0.122610 0.048230 2.020253
-0.111042 0.048021 2.011510
-0.099721 0.047886 2.005822
-0.088675 0.047864 2.004912
-0.077694 0.047876 2.005436
-0.066614 0.047822 2.003159
-0.055661 0.047855 2.004544
-0.044657 0.047850 2.004323
-0.033664 0.047857 2.004631
-0.022694 0.047919 2.007204
-0.011699 0.047997 2.010473
-0.000670 0.048147 2.016779
0.010441 0.048350 2.025283
0.021678 0.048629 2.036965
0.033048 0.048915 2.048946
0.044398 0.049033 2.053891
0.055891 0.049230 2.062130
0.067702 0.049593 2.077348
0.080257 0.050318 2.107720
0.200201 0.048554 2.033818
0.208765 0.047958 2.008838
0.218579 0.047694 1.997797
0.229076 0.047597 1.993747
0.241175 0.047827 2.003370
0.256168 0.048586 2.035157
0.274930 0.049966 2.092968
-0.388753 0.059330 2.020747
-0.373839 0.058729 2.000273
-0.361891 0.058572 1.994916
-0.351041 0.058588 1.995465
-0.342467 0.058997 2.009401
-0.338387 0.060233 2.051507
-0.209049 0.061935 2.109479
-0.195293 0.061251 2.086181
-0.182213 0.060707 2.067651
-0.170314 0.060510 2.060949
-0.158843 0.060449 2.058850
-0.146587 0.060056 2.045464
-0.134325 0.059595 2.029779
-0.122495 0.059260 2.018361
-0.110982 0.059027 2.010440
-0.099554 0.058793 2.002463
-0.088461 0.058723 2.000078
-0.077515 0.058745 2.000825
-0.066478 0.058694 1.999070
-0.055624 0.058815 2.003211
-0.044560 0.058720 1.999972
-0.033551 0.058659 1.997899
-0.022620 0.058741 2.000697
-0.011680 0.058932 2.007190
-0.000668 0.059092 2.012641
0.010404 0.059254 2.018173
0.021620 0.059647 2.031536
0.032991 0.060053 2.045372
0.044288 0.060154 2.048813
0.055839 0.060488 2.060196
0.067554 0.060858 2.072802
0.080423 0.062012 2.112080
0.199918 0.059629 2.030946
0.208035 0.058774 2.001821
0.217533 0.058375 1.988233
0.228442 0.058375 1.988228
0.240785 0.058725 2.000137
0.255702 0.059644 2.031454
-0.388759 0.070419 2.020779
-0.373045 0.069557 1.996028
-0.360879 0.069324 1.989338
-0.350430 0.069416 1.991989
-0.341691 0.069864 2.004845
-0.338372 0.071487 2.051419
-0.208638 0.073366 2.105330
-0.195038 0.072603 2.083451
-0.182188 0.072042 2.067362
-0.170083 0.071721 2.058148
-0.158426 0.071557 2.053441
-0.146612 0.071292 2.045820
-0.134316 0.070728 2.029631
-0.122364 0.070260 2.016207
-0.110563 0.069794 2.002844
-0.099388 0.069664 1.999116
-0.088340 0.069603 1.997343
-0.077424 0.069642 1.998467
-0.066526 0.069713 2.000506
-0.055635 0.069821 2.003614
-0.044566 0.069703 2.000237
-0.033566 0.069651 1.998745
-0.022593 0.069637 1.998320
-0.011653 0.069782 2.002493
-0.000668 0.070093 2.011433
0.010397 0.070283 2.016857
0.021662 0.070932 2.035487
0.032946 0.071179 2.042597
0.044205 0.071263 2.044984
0.055640 0.071538 2.052881
0.067501 0.072176 2.071183
0.079912 0.073133 2.098642
0.199475 0.070617 2.026441
0.207385 0.069540 1.995561
0.216652 0.069004 1.980177
0.228383 0.069267 1.987710
0.240022 0.069479 1.993798
0.255841 0.070829 2.032553
-0.387627 0.081270 2.014895
-0.371981 0.080279 1.990334
-0.360311 0.080113 1.986205
-0.349727 0.080185 1.987991
-0.340876 0.080672 2.000066
-0.338929 0.082879 2.054794
-0.207694 0.084534 2.095805
-0.194420 0.083769 2.076853
-0.182065 0.083330 2.065973
-0.169978 0.082964 2.056886
-0.158384 0.082803 2.052900
-0.146292 0.082337 2.041354
-0.134081 0.081722 2.026089
-0.122257 0.081252 2.014437
-0.110654 0.080851 2.004496
-0.099304 0.080566 1.997433
-0.088262 0.080491 1.995581
-0.077414 0.080597 1.998217
-0.066504 0.080663 1.999847
-0.055592 0.080752 2.002044
-0.044505 0.080568 1.997480
-0.033492 0.080442 1.994360
-0.022555 0.080465 1.994934
-0.011637 0.080660 1.999761
-0.000667 0.081051 2.009456
0.010418 0.081515 2.020976
0.021651 0.082059 2.034464
0.032904 0.082284 2.040036
0.044136 0.082354 2.041778
0.055617 0.082768 2.052027
0.067486 0.083522 2.070729
0.079767 0.084494 2.094830
0.198617 0.081384 2.017725
0.206208 0.080034 1.984240
0.215976 0.079621 1.973999
0.227362 0.079815 1.978830
0.239665 0.080299 1.990831
0.255740 0.081950 2.031752
-0.390033 0.092899 2.027400
-0.371481 0.091078 1.987658
-0.359023 0.090686 1.979106
-0.349044 0.090915 1.984111
-0.341995 0.091947 2.006631
-0.222664 0.097554 2.128982
-0.207223 0.095816 2.091055
-0.194246 0.095080 2.074994
-0.182129 0.094699 2.066692
-0.169932 0.094224 2.056322
-0.158311 0.094024 2.051955
-0.146183 0.093469 2.039833
-0.133861 0.092687 2.022766
-0.122225 0.092281 2.013910
-0.110512 0.091731 2.001911
-0.099268 0.091493 1.996711
-0.088295 0.091475 1.996325
-0.077327 0.091458 1.995961
-0.066429 0.091533 1.997582
-0.055400 0.091421 1.995152
-0.044436 0.091387 1.994404
-0.033451 0.091275 1.991949
-0.022556 0.091414 1.994991
-0.011633 0.091606 1.999189
-0.000667 0.092055 2.008981
0.010423 0.092641 2.021775
0.021601 0.093004 2.029695
0.032879 0.093406 2.038457
0.044167 0.093623 2.043201
0.055614 0.094022 2.051917
0.067456 0.094842 2.069795
0.079504 0.095673 2.087944
0.093373 0.098210 2.143304
0.198204 0.092263 2.013529
0.205692 0.090693 1.979266
0.215914 0.090426 1.973433
0.227100 0.090569 1.976546
0.239744 0.091253 1.991482
0.255472 0.093001 2.029621
-0.393171 0.104860 2.043709
-0.370425 0.101695 1.982006
-0.357864 0.101218 1.972718
-0.348168 0.101547 1.979132
-0.342491 0.103107 2.009539
-0.341260 0.106154 2.068926
-0.221217 0.108526 2.115146
-0.206858 0.107101 2.087370
-0.193990 0.106325 2.072259
-0.181315 0.105566 2.057458
-0.170064 0.105590 2.057925
-0.158645 0.105505 2.056280
-0.146244 0.104705 2.040683
-0.133880 0.103800 2.023044
-0.122168 0.103283 2.012970
-0.110542 0.102744 2.002465
-0.099288 0.102469 1.997109
-0.088343 0.102485 1.997407
-0.077374 0.102473 1.997177
-0.066445 0.102519 1.998075
-0.055359 0.102292 1.993657
-0.044400 0.102246 1.992760
-0.033457 0.102220 1.992252
-0.022547 0.102323 1.994249
-0.011642 0.102649 2.000611
-0.000666 0.102984 2.007134
0.010388 0.103395 2.015152
0.021549 0.103895 2.024885
0.032847 0.104488 2.036447
0.044206 0.104927 2.045015
0.055635 0.105321 2.052680
0.067228 0.105840 2.062799
0.079336 0.106904 2.083536
0.093057 0.109599 2.136054
0.198218 0.103319 2.013673
0.205231 0.101326 1.974831
0.215755 0.101180 1.971986
0.226519 0.101155 1.971490
0.240671 0.102576 1.999185
-0.369295 0.112227 1.975964
-0.356955 0.111758 1.967709
-0.347016 0.112035 1.972582
-0.342123 0.114011 2.007381
-0.342542 0.117948 2.076699
-0.220105 0.119528 2.104516
-0.206988 0.118629 2.088678
-0.194083 0.117752 2.073248
-0.181461 0.116949 2.059112
-0.170100 0.116907 2.058362
-0.158434 0.116633 2.053546
-0.146165 0.115840 2.039582
-0.133933 0.114947 2.023856
-0.122271 0.114426 2.014681
-0.110777 0.113974 2.006723
-0.099365 0.113515 1.998643
-0.088181 0.113237 1.993742
-0.077295 0.113315 1.995123
-0.066428 0.113454 1.997568
-0.055355 0.113224 1.993515
-0.044443 0.113291 1.994696
-0.033510 0.113333 1.995438
-0.022576 0.113411 1.996807
-0.011647 0.113675 2.001456
-0.000667 0.114053 2.008120
0.010390 0.114465 2.015370
0.021590 0.115224 2.028738
0.032889 0.115811 2.039062
0.044124 0.115934 2.041227
0.055590 0.116490 2.051022
0.067206 0.117121 2.062128
0.079461 0.118522 2.086798
0.093414 0.121785 2.144252
0.197151 0.113753 2.002832
0.204310 0.111659 1.965968
0.214593 0.111397 1.961361
0.227185 0.112302 1.977287
0.244078 0.115153 2.027491
-0.370112 0.123341 1.980333
-0.356556 0.122418 1.965506
-0.346632 0.122723 1.970399
-0.341307 0.124728 2.002591
-0.338563 0.127841 2.052578
-0.219581 0.130764 2.099502
-0.206766 0.129950 2.086443
-0.194442 0.129367 2.077083
-0.181686 0.128407 2.061669
-0.169549 0.127786 2.051697
-0.157982 0.127536 2.047678
-0.146015 0.126901 2.037483
-0.133969 0.126086 2.024399
-0.122367 0.125579 2.016254
-0.110953 0.125183 2.009909
-0.099604 0.124782 2.003464
-0.088318 0.124369 1.996840
-0.077296 0.124265 1.995164
-0.066327 0.124226 1.994531
-0.055373 0.124203 1.994167
-0.044460 0.124285 1.995483
-0.033516 0.124305 1.995801
-0.022582 0.124400 1.997334
-0.011654 0.124738 2.002764
-0.000667 0.125088 2.008372
0.010402 0.125675 2.017803
0.021604 0.126438 2.030059
0.032833 0.126785 2.035618
0.044146 0.127198 2.042255
0.055620 0.127813 2.052127
0.067350 0.128710 2.066527
0.079817 0.130555 2.096162
0.094386 0.134940 2.166558
0.195820 0.123901 1.989312
0.204096 0.122318 1.963908
0.214592 0.122159 1.961354
0.228592 0.123914 1.989532
-0.368919 0.133775 1.973952
-0.355616 0.132852 1.960328
-0.347099 0.133714 1.973056
-0.340972 0.135583 2.000629
-0.338508 0.139081 2.052241
-0.207511 0.141908 2.093960
-0.194441 0.140764 2.077077
-0.181504 0.139580 2.059604
-0.169688 0.139158 2.053375
-0.158069 0.138849 2.048818
-0.146055 0.138119 2.038044
-0.134030 0.137256 2.025312
-0.122258 0.136520 2.014459
-0.111019 0.136293 2.011109
-0.099519 0.135658 2.001741
-0.088494 0.135596 2.000827
-0.077457 0.135494 1.999309
-0.066422 0.135363 1.997379
-0.055435 0.135295 1.996382
-0.044524 0.135430 1.998366
-0.033579 0.135508 1.999523
-0.022616 0.135561 2.000300
-0.011674 0.135957 2.006149
-0.000668 0.136385 2.012460
0.010417 0.136949 2.020789
0.021569 0.137355 2.026774
0.032743 0.137574 2.030003
0.044165 0.138462 2.043112
0.055619 0.139070 2.052082
0.067425 0.140207 2.068857
0.079861 0.142136 2.097321
0.093655 0.145691 2.149772
0.194803 0.134116 1.978985
0.203156 0.132482 1.954870
0.214336 0.132763 1.959010
0.230792 0.136129 2.008677
-0.367828 0.144179 1.968114
-0.353249 0.142652 1.947277
-0.345672 0.143947 1.964946
-0.340992 0.146569 2.000746
-0.339265 0.150678 2.056834
-0.207308 0.153248 2.091912
-0.194283 0.152037 2.075389
-0.181830 0.151152 2.063303
-0.169638 0.150380 2.052766
-0.158046 0.150069 2.048518
-0.145927 0.149171 2.036261
-0.133990 0.148325 2.024706
-0.122268 0.147586 2.014623
-0.111093 0.147427 2.012447
-0.099741 0.146970 2.006221
-0.088649 0.146832 2.004328
-0.077518 0.146579 2.000883
-0.066463 0.146412 1.998595
-0.055520 0.146476 1.999468
-0.044559 0.146509 1.999925
-0.033599 0.146567 2.000710
-0.022611 0.146508 1.999912
-0.011677 0.147000 2.006629
-0.000668 0.147428 2.012470
0.010411 0.147949 2.019576
0.021541 0.148277 2.024056
0.032762 0.148799 2.031187
0.044183 0.149733 2.043930
0.055696 0.150539 2.054935
0.067365 0.151424 2.067015
0.079930 0.153776 2.099124
0.093832 0.157784 2.153839
0.188085 0.148239 2.023535
0.193650 0.144117 1.967271
0.202229 0.142555 1.945952
0.213869 0.143199 1.954740
-0.364193 0.153446 1.948664
-0.351741 0.152683 1.938964
-0.344502 0.154205 1.958295
-0.339093 0.156670 1.989606
-0.207205 0.164644 2.090865
-0.193819 0.163035 2.070429
-0.181454 0.162137 2.059033
-0.169468 0.161482 2.050716
-0.157666 0.160922 2.043593
-0.146092 0.160525 2.038561
-0.134165 0.159643 2.027353
-0.122489 0.158928 2.018274
-0.111129 0.158520 2.013100
-0.099872 0.158186 2.008854
-0.088736 0.157985 2.006302
-0.077581 0.157687 2.002520
-0.066621 0.157754 2.003369
-0.055613 0.157710 2.002804
-0.044604 0.157641 2.001933
-0.033624 0.157664 2.002227
-0.022653 0.157774 2.003615
-0.011692 0.158223 2.009321
-0.000669 0.158609 2.014231
0.010427 0.159273 2.022661
0.021560 0.159529 2.025913
0.032813 0.160193 2.034339
0.044215 0.161068 2.045453
0.055671 0.161743 2.054020
0.067253 0.162494 2.063567
0.079751 0.164925 2.094432
0.093489 0.168983 2.145965
0.186301 0.157830 2.004335
0.192714 0.154163 1.957762
0.202264 0.153259 1.946286
0.215468 0.155076 1.969362
-0.349630 0.162342 1.927325
-0.341034 0.163290 1.938580
-0.339712 0.167893 1.993235
-0.206671 0.175663 2.085478
-0.193505 0.174113 2.067074
-0.181141 0.173136 2.055478
-0.169521 0.172789 2.051356
-0.157652 0.172120 2.043411
-0.145614 0.171149 2.031889
-0.134168 0.170771 2.027399
-0.122756 0.170373 2.022671
-0.111262 0.169770 2.015512
-0.100086 0.169571 2.013155
-0.088851 0.169212 2.008887
-0.077697 0.168928 2.005514
-0.066640 0.168795 2.003939
-0.055631 0.168753 2.003439
-0.044591 0.168576 2.001346
-0.033659 0.168827 2.004324
-0.022671 0.168903 2.005222
-0.011693 0.169261 2.009477
-0.000671 0.170142 2.019934
0.010453 0.170797 2.027707
0.021633 0.171219 2.032724
0.032863 0.171619 2.037471
0.044170 0.172116 2.043372
0.055567 0.172688 2.050158
0.067191 0.173656 2.061652
0.079617 0.176121 2.090912
0.093836 0.181429 2.153928
0.182557 0.165435 1.964053
0.190304 0.162843 1.933276
0.202015 0.163737 1.943890
0.218003 0.167833 1.992525
-0.357288 0.171517 1.911719
-0.347672 0.171949 1.916531
-0.337472 0.172110 1.918333
-0.335030 0.176366 1.965763
-0.332480 0.180846 2.015700
-0.206011 0.186509 2.078824
-0.193083 0.185051 2.062570
-0.181026 0.184298 2.054182
-0.169307 0.183812 2.048764
-0.157704 0.183392 2.044077
-0.145688 0.182391 2.032917
-0.134404 0.182215 2.030965
-0.122845 0.181602 2.024129
-0.111358 0.180984 2.017244
-0.100114 0.180669 2.013729
-0.088948 0.180433 2.011096
-0.077770 0.180101 2.007397
-0.066642 0.179796 2.003997
-0.055701 0.179974 2.005987
-0.044714 0.180052 2.006856
-0.033724 0.180170 2.008170
-0.022748 0.180514 2.012001
-0.011723 0.180751 2.014639
-0.000671 0.181471 2.022665
0.010453 0.181914 2.027608
0.021627 0.182325 2.032190
0.032906 0.183038 2.040130
0.044063 0.182883 2.038404
0.055429 0.183482 2.045087
0.067050 0.184582 2.057339
0.079301 0.186848 2.082594
0.170852 0.175260 1.953442
0.179039 0.172817 1.926213
0.189469 0.172689 1.924789
0.202536 0.174853 1.948904
-0.347117 0.182174 1.913472
-0.335549 0.181596 1.907400
-0.327722 0.183070 1.922884
-0.322474 0.186131 1.955037
-0.204967 0.196912 2.068281
-0.192486 0.195761 2.056192
-0.180531 0.195035 2.048561
-0.168924 0.194613 2.044127
-0.157834 0.194768 2.045763
-0.145708 0.193572 2.033199
-0.134332 0.193256 2.029875
-0.123164 0.193210 2.029396
-0.111480 0.192263 2.019452
-0.100138 0.191764 2.014203
-0.089102 0.191798 2.014560
-0.077904 0.191446 2.010863
-0.066759 0.191126 2.007501
-0.055790 0.191285 2.009180
-0.044772 0.191312 2.009457
-0.033691 0.191002 2.006199
-0.022740 0.191483 2.011250
-0.011736 0.192011 2.016803
-0.000671 0.192564 2.022607
0.010450 0.192996 2.027147
0.021623 0.193438 2.031790
0.032771 0.193436 2.031770
0.044002 0.193798 2.035573
0.055417 0.194661 2.044634
0.066993 0.195705 2.055601
0.078879 0.197221 2.071527
0.092300 0.201711 2.118680
0.157857 0.183336 1.925677
0.167452 0.182278 1.914572
0.178042 0.182365 1.915485
0.189412 0.183197 1.924217
0.203302 0.186249 1.956276
-0.348026 0.193178 1.918486
-0.334603 0.191520 1.902020
-0.323473 0.191111 1.897957
-0.314498 0.191989 1.906682
-0.306009 0.193235 1.919053
-0.204564 0.207852 2.064216
-0.192382 0.206932 2.055076
-0.180333 0.206050 2.046319
-0.168570 0.205398 2.039849
-0.157221 0.205195 2.037825
-0.145726 0.204754 2.033452
-0.134294 0.204337 2.029312
-0.122979 0.204038 2.026344
-0.111665 0.203682 2.022800
-0.100185 0.202912 2.015156
-0.089004 0.202629 2.012346
-0.077941 0.202574 2.011796
-0.066822 0.202332 2.009393
-0.055763 0.202211 2.008193
-0.044833 0.202615 2.012205
-0.033795 0.202634 2.012399
-0.022766 0.202755 2.013598
-0.011745 0.203239 2.018401
-0.000672 0.203821 2.024187
0.010449 0.204101 2.026965
0.021617 0.204528 2.031204
0.032748 0.204440 2.030337
0.043928 0.204622 2.032138
0.055259 0.205292 2.038796
0.066661 0.205957 2.045398
0.078478 0.207527 2.060990
0.091418 0.211297 2.098429
0.135854 0.192669 1.913429
0.145539 0.191597 1.902782
0.156080 0.191719 1.903998
0.166187 0.191328 1.900112
0.177648 0.192449 1.911246
0.189750 0.194100 1.927643
0.204079 0.197735 1.963747
-0.346515 0.202820 1.910154
-0.333640 0.201375 1.896547
-0.321239 0.200133 1.884848
-0.310938 0.200160 1.885097
-0.300927 0.200381 1.887185
-0.295531 0.203801 1.919395
-0.216473 0.219770 2.069786
-0.203949 0.218520 2.058014
-0.191831 0.217584 2.049196
-0.180059 0.216947 2.043200
-0.168481 0.216476 2.038763
-0.156991 0.216059 2.034833
-0.145573 0.215685 2.031317
-0.134278 0.215446 2.029065
-0.123027 0.215240 2.027123
-0.111852 0.215140 2.026186
-0.100364 0.214350 2.018739
-0.089089 0.213875 2.014267
-0.077850 0.213363 2.009450
-0.066709 0.212997 2.005995
-0.055780 0.213296 2.008820
-0.044833 0.213656 2.012208
-0.033863 0.214110 2.016484
-0.022814 0.214254 2.017836
-0.011754 0.214479 2.019952
-0.000671 0.214756 2.022561
0.010440 0.215040 2.025243
0.021564 0.215153 2.026301
0.032744 0.215554 2.030085
0.043904 0.215656 2.031044
0.055111 0.215900 2.033344
0.066548 0.216811 2.041922
0.078375 0.218550 2.058297
0.090655 0.220952 2.080921
0.124054 0.201060 1.893575
0.133936 0.200298 1.886405
0.144317 0.200341 1.886805
0.154865 0.200593 1.889178
0.166021 0.201552 1.898206
0.177638 0.202925 1.911139
0.191572 0.206644 1.946162
-0.344119 0.211826 1.896945
-0.331204 0.210236 1.882703
-0.318692 0.208807 1.869905
-0.309182 0.209314 1.874449
-0.298105 0.208760 1.869487
-0.288895 0.209520 1.876293
-0.215519 0.230108 2.060665
-0.203506 0.229313 2.053541
-0.191423 0.228341 2.044837
-0.179510 0.227463 2.036970
-0.168177 0.227253 2.035094
-0.156944 0.227157 2.034232
-0.145458 0.226652 2.029709
-0.134394 0.226776 2.030822
-0.123237 0.226750 2.030588
-0.111939 0.226435 2.027770
-0.100430 0.225575 2.020071
-0.089138 0.225052 2.015388
-0.077907 0.224556 2.010940
-0.066738 0.224102 2.006878
-0.055736 0.224143 2.007241
-0.044829 0.224676 2.012017
-0.033813 0.224842 2.013504
-0.022846 0.225644 2.020686
-0.011770 0.225870 2.022712
-0.000672 0.226188 2.025557
0.010430 0.225935 2.023288
0.021538 0.225995 2.023826
0.032695 0.226356 2.027061
0.043871 0.226631 2.029523
0.055179 0.227337 2.035846
0.066466 0.227737 2.039429
0.078164 0.229223 2.052732
0.090253 0.231339 2.071683
0.105127 0.215244 1.927550
0.113273 0.210723 1.887062
0.123181 0.209961 1.880241
0.133577 0.210086 1.881357
0.143728 0.209834 1.879101
0.154149 0.209984 1.880448
0.165607 0.211439 1.893474
0.178711 0.214700 1.922677
-0.343033 0.221534 1.890963
-0.329732 0.219586 1.874333
-0.317556 0.218286 1.863235
-0.307840 0.218647 1.866317
-0.297478 0.218558 1.865558
-0.286347 0.217877 1.859747
-0.279006 0.220136 1.879029
-0.215519 0.241415 2.060662
-0.203401 0.240457 2.052480
-0.191176 0.239252 2.042201
-0.179345 0.238421 2.035100
-0.168121 0.238340 2.034414
-0.156976 0.238368 2.034647
-0.145541 0.237925 2.030867
-0.134223 0.237616 2.028236
-0.123018 0.237470 2.026991
-0.111681 0.237013 2.023088
-0.100311 0.236379 2.017678
-0.089030 0.235824 2.012938
-0.077819 0.235324 2.008667
-0.066832 0.235445 2.009703
-0.055777 0.235330 2.008720
-0.044824 0.235691 2.011799
-0.033811 0.235872 2.013345
-0.022823 0.236495 2.018660
-0.011762 0.236796 2.021235
-0.000673 0.237439 2.026724
0.010451 0.237509 2.027321
0.021565 0.237392 2.026325
0.032731 0.237742 2.029307
0.043891 0.237874 2.030434
0.055172 0.238479 2.035595
0.066381 0.238622 2.036823
0.077951 0.239832 2.047145
0.089739 0.241324 2.059881
0.101189 0.241677 2.062899
0.104693 0.224889 1.919595
0.113048 0.220637 1.883305
0.123251 0.220404 1.881318
0.133564 0.220387 1.881172
0.143690 0.220086 1.878603
0.154053 0.220165 1.879275
0.165087 0.221132 1.887533
0.179110 0.225753 1.926972
-0.340786 0.230391 1.878577
-0.328498 0.229010 1.867318
-0.317180 0.228240 1.861034
-0.307765 0.228831 1.865858
-0.298048 0.229233 1.869129
-0.286838 0.228473 1.862934
-0.276894 0.228703 1.864810
-0.271342 0.232716 1.897535
-0.227462 0.253431 2.066438
-0.214745 0.251815 2.053267
-0.202882 0.251077 2.047247
-0.191159 0.250435 2.042012
-0.179393 0.249655 2.035652
-0.167793 0.249016 2.030441
-0.156607 0.248945 2.029859
-0.145497 0.248992 2.030247
-0.134215 0.248731 2.028119
-0.123067 0.248691 2.027792
-0.111893 0.248585 2.026926
-0.100369 0.247594 2.018849
-0.089183 0.247293 2.016392
-0.077881 0.246539 2.010247
-0.066932 0.246840 2.012702
-0.055912 0.246946 2.013559
-0.044839 0.246814 2.012485
-0.033794 0.246794 2.012324
-0.022838 0.247728 2.019935
-0.011779 0.248240 2.024117
-0.000673 0.248510 2.026314
0.010452 0.248643 2.027396
0.021585 0.248749 2.028266
0.032726 0.248836 2.028970
0.043845 0.248755 2.028311
0.054966 0.248716 2.027997
0.066274 0.249396 2.033538
0.077579 0.249866 2.037373
0.089240 0.251222 2.048432
0.101027 0.252591 2.059589
0.105892 0.238118 1.941581
0.113529 0.231954 1.891324
0.123235 0.230697 1.881068
0.133600 0.230771 1.881675
0.143711 0.230428 1.878876
0.153956 0.230331 1.878086
0.165480 0.232041 1.892031
-0.339624 0.239878 1.872172
-0.328725 0.239422 1.868611
-0.317628 0.238788 1.863661
-0.307598 0.238940 1.864847
-0.298248 0.239649 1.870384
-0.287734 0.239440 1.868752
-0.278194 0.240057 1.873564
-0.273340 0.244919 1.911509
-0.226725 0.263912 2.059745
-0.214371 0.262623 2.049687
-0.202610 0.261958 2.044498
-0.190709 0.261025 2.037214
-0.179105 0.260406 2.032380
-0.167731 0.260061 2.029691
-0.156427 0.259785 2.027535
-0.145463 0.260072 2.029779
-0.134396 0.260209 2.030845
-0.123304 0.260319 2.031701
-0.112122 0.260240 2.031088
-0.100627 0.259338 2.024044
-0.089041 0.257947 2.013189
-0.077918 0.257694 2.011219
-0.066975 0.258052 2.014014
-0.056058 0.258671 2.018845
-0.044900 0.258205 2.015206
-0.033911 0.258733 2.019325
-0.022920 0.259742 2.027200
-0.011781 0.259396 2.024498
-0.000674 0.260059 2.029678
0.010464 0.260073 2.029782
0.021592 0.259954 2.028858
0.032689 0.259676 2.026683
0.043768 0.259429 2.024759
0.054905 0.259556 2.025752
0.066069 0.259747 2.027241
0.077529 0.260878 2.036068
0.089179 0.262283 2.047036
0.101714 0.265688 2.073604
0.108872 0.255772 1.996218
0.113833 0.242982 1.896391
0.123281 0.241108 1.881771
0.133391 0.240719 1.878730
0.143559 0.240483 1.876891
0.153975 0.240666 1.878321
0.165912 0.243055 1.896964
-0.334518 0.246390 1.844025
-0.327498 0.248743 1.861634
-0.316751 0.248326 1.858511
-0.306762 0.248495 1.859778
-0.297090 0.248942 1.863123
-0.287455 0.249453 1.866944
-0.282256 0.253992 1.900916
-0.226253 0.274642 2.055462
-0.213716 0.273033 2.043422
-0.202082 0.272466 2.039177
-0.190571 0.272005 2.035730
-0.179312 0.271872 2.034733
-0.167782 0.271281 2.030309
-0.156411 0.270882 2.027321
-0.145399 0.271091 2.028887
-0.134339 0.271239 2.029993
-0.123345 0.271556 2.032371
-0.112275 0.271755 2.033858
-0.101032 0.271530 2.032174
-0.089189 0.269441 2.016541
-0.077969 0.268906 2.012535
-0.066961 0.269046 2.013581
-0.055825 0.268626 2.010436
-0.044933 0.269461 2.016687
-0.034022 0.270693 2.025908
-0.022973 0.271487 2.031855
-0.011836 0.271779 2.034037
-0.000675 0.271832 2.034430
0.010465 0.271248 2.030064
0.021571 0.270831 2.026943
0.032705 0.270927 2.027663
0.043816 0.270837 2.026986
0.054882 0.270558 2.024901
0.065928 0.270293 2.022916
0.077311 0.271286 2.030346
0.088993 0.272945 2.042762
0.101344 0.276058 2.066059
0.115013 0.281770 2.108809
0.118707 0.264237 1.977592
0.125402 0.255759 1.914140
0.134660 0.253416 1.896608
0.144734 0.252835 1.892258
0.154903 0.252486 1.889647
0.167329 0.255628 1.913163
-0.328668 0.259884 1.868288
-0.318737 0.260145 1.870167
-0.309538 0.261041 1.876609
-0.298761 0.260623 1.873600
-0.287459 0.259700 1.866967
-0.225510 0.284981 2.048707
-0.213154 0.283499 2.038053
-0.201649 0.283047 2.034804
-0.190106 0.282486 2.030772
-0.179093 0.282690 2.032241
-0.167600 0.282115 2.028110
-0.156398 0.281982 2.027149
-0.145318 0.282067 2.027760
-0.134518 0.282752 2.032686
-0.123568 0.283219 2.036041
-0.112482 0.283437 2.037607
-0.101216 0.283197 2.035885
-0.089474 0.281401 2.022971
-0.078106 0.280442 2.016077
-0.066785 0.279361 2.008306
-0.055617 0.278614 2.002940
-0.044845 0.279977 2.012734
-0.033985 0.281509 2.023747
-0.023054 0.283641 2.039075
-0.011865 0.283627 2.038976
-0.000676 0.283069 2.034963
0.010464 0.282363 2.029890
0.021552 0.281697 2.025103
0.032679 0.281828 2.026046
0.043776 0.281697 2.025101
0.054858 0.281546 2.024019
0.065839 0.281013 2.020183
0.077128 0.281757 2.025531
0.088778 0.283467 2.037829
0.100992 0.286395 2.058875
0.115233 0.293903 2.112853
0.148161 0.269450 1.937059
0.158431 0.268842 1.932688
-0.225189 0.295801 2.045791
-0.212655 0.293991 2.033278
-0.201386 0.293828 2.032146
-0.190100 0.293618 2.030699
-0.178616 0.293059 2.026834
-0.167586 0.293219 2.027939
-0.156754 0.293772 2.031762
-0.145527 0.293614 2.030667
-0.134604 0.294094 2.033992
-0.123576 0.294411 2.036181
-0.112441 0.294510 2.036866
-0.101474 0.295119 2.041078
-0.089606 0.292934 2.025963
-0.078207 0.291881 2.018685
-0.066579 0.289484 2.002108
-0.055358 0.288258 1.993626
-0.044850 0.291058 2.012993
-0.034088 0.293499 2.029873
-0.023079 0.295141 2.041231
-0.011855 0.294565 2.037245
-0.000676 0.294326 2.035591
0.010478 0.293890 2.032575
0.021592 0.293360 2.028916
0.032684 0.292995 2.026386
0.043708 0.292357 2.021973
0.054845 0.292580 2.023519
0.065846 0.292128 2.020392
0.077051 0.292580 2.023515
0.088536 0.293845 2.032268
0.100633 0.296634 2.051557
0.114128 0.302567 2.092592
-0.236375 0.306975 2.045450
-0.224240 0.305732 2.037169
-0.212166 0.304446 2.028602
-0.200751 0.304017 2.025739
-0.189607 0.303972 2.025440
-0.178495 0.303975 2.025461
-0.167392 0.303994 2.025586
-0.156724 0.304864 2.031383
-0.145850 0.305434 2.035182
-0.134655 0.305371 2.034764
-0.123610 0.305667 2.036737
-0.112598 0.306112 2.039703
-0.101557 0.306570 2.042752
-0.089449 0.303517 2.022411
-0.077980 0.302076 2.012806
-0.066431 0.299799 1.997639
-0.055269 0.298717 1.990424
-0.044713 0.301176 2.006811
-0.034159 0.305268 2.034078
-0.023083 0.306400 2.041619
-0.011848 0.305561 2.036031
-0.000676 0.305619 2.036416
0.010487 0.305298 2.034279
0.021622 0.304912 2.031704
0.032689 0.304155 2.026661
0.043728 0.303589 2.022891
0.054775 0.303299 2.020957
0.065911 0.303513 2.022387
0.076925 0.303187 2.020212
0.088340 0.304322 2.027773
0.100319 0.306931 2.045155
0.113900 0.313423 2.088415
-0.236161 0.317910 2.043599
-0.223601 0.316008 2.031369
-0.211864 0.315128 2.025714
-0.200330 0.314471 2.021492
-0.189404 0.314748 2.023267
-0.178387 0.314898 2.024237
-0.167373 0.315072 2.025356
-0.156417 0.315390 2.027395
-0.145545 0.315939 2.030924
-0.134611 0.316431 2.034091
-0.123695 0.317062 2.038143
-0.112676 0.317524 2.041112
-0.101353 0.317138 2.038634
-0.089510 0.314828 2.023786
-0.077993 0.313175 2.013160
-0.066314 0.310214 1.994122
-0.055132 0.308870 1.985486
-0.044565 0.311158 2.000194
-0.034218 0.316977 2.037600
-0.023105 0.317905 2.043562
-0.011863 0.317148 2.038700
-0.000676 0.316770 2.036267
0.010475 0.316096 2.031932
0.021552 0.315041 2.025152
0.032567 0.314100 2.019105
0.043660 0.314205 2.019779
0.054750 0.314245 2.020036
0.065780 0.313985 2.018368
0.076922 0.314259 2.020128
0.088189 0.314911 2.024315
0.099839 0.316630 2.035367
0.113406 0.323472 2.079348
-0.235985 0.328879 2.042078
-0.223303 0.326718 2.028658
-0.211246 0.325292 2.019806
-0.199845 0.324776 2.016605
-0.189079 0.325290 2.019793
-0.178365 0.325965 2.023984
-0.167093 0.325642 2.021977
-0.156269 0.326207 2.025486
-0.145453 0.326877 2.029646
-0.134541 0.327422 2.033032
-0.123620 0.328045 2.036902
-0.112580 0.328444 2.039380
-0.101517 0.328856 2.041933
-0.089577 0.326179 2.025313
-0.078136 0.324814 2.016835
-0.066572 0.322407 2.001892
-0.055054 0.319309 1.982659
-0.044454 0.321329 1.995200
-0.034216 0.328136 2.037467
-0.023116 0.329269 2.044502
-0.011865 0.328367 2.038901
-0.000676 0.327914 2.036087
0.010478 0.327328 2.032445
0.021586 0.326664 2.028326
0.032613 0.325639 2.021960
0.043656 0.325256 2.019581
0.054817 0.325724 2.022490
0.065790 0.325111 2.018681
0.076822 0.324922 2.017510
0.087968 0.325200 2.019237
0.099593 0.326989 2.030345
0.112268 0.331522 2.058489
-0.235118 0.338834 2.034573
-0.222864 0.337185 2.024668
-0.210701 0.335508 2.014598
-0.199751 0.335682 2.015647
-0.188729 0.335750 2.016057
-0.178123 0.336614 2.021241
-0.167062 0.336674 2.021600
-0.156250 0.337278 2.025230
-0.145545 0.338226 2.030920
-0.134535 0.338563 2.032948
-0.123632 0.339254 2.037095
-0.112709 0.340022 2.041707
-0.101681 0.340612 2.045248
-0.090448 0.340572 2.045006
-0.078621 0.337965 2.029355
-0.066639 0.333725 2.003896
-0.054994 0.329830 1.980509
-0.044283 0.331000 1.987530
-0.034120 0.338371 2.031789
-0.023102 0.340288 2.043301
-0.011887 0.340188 2.042702
-0.000676 0.339026 2.035724
0.010462 0.337982 2.029458
0.021552 0.337267 2.025164
0.032592 0.336517 2.020659
0.043560 0.335599 2.015147
0.054618 0.335599 2.015147
0.065697 0.335710 2.015811
0.076654 0.335256 2.013090
0.087863 0.335881 2.016839
0.099392 0.337449 2.026255
0.111979 0.341933 2.053178
-0.248874 0.353681 2.055985
-0.234588 0.349209 2.029986
-0.222055 0.347030 2.017317
-0.210755 0.346650 2.015112
-0.199579 0.346444 2.013911
-0.188490 0.346373 2.013501
-0.177573 0.346629 2.014991
-0.166918 0.347465 2.019848
-0.156378 0.348678 2.026898
-0.145456 0.349158 2.029688
-0.134580 0.349835 2.033622
-0.123562 0.350233 2.035940
-0.112559 0.350758 2.038991
-0.101593 0.351527 2.043460
-0.090885 0.353490 2.054872
-0.079800 0.354338 2.059800
-0.067153 0.347380 2.019351
-0.055103 0.341375 1.984446
-0.044366 0.342548 1.991268
-0.034267 0.351021 2.040520
-0.023141 0.352098 2.046777
-0.011904 0.351899 2.045621
-0.000676 0.350436 2.037118
0.010467 0.349281 2.030402
0.021538 0.348141 2.023776
0.032567 0.347343 2.019140
0.043609 0.347043 2.017393
0.054587 0.346460 2.014004
0.065559 0.346045 2.011590
0.076542 0.345796 2.010143
0.087693 0.346276 2.012935
0.099221 0.347967 2.022767
0.111441 0.351503 2.043322
0.125588 0.359913 2.092212
-0.246467 0.361434 2.036105
-0.234345 0.359975 2.027887
-0.221746 0.357601 2.014515
-0.210574 0.357401 2.013388
-0.199377 0.357133 2.011877
-0.188435 0.357318 2.012916
-0.177490 0.357519 2.014050
-0.166677 0.358031 2.016937
-0.156011 0.358954 2.022137
-0.145202 0.359665 2.026139
-0.134338 0.360345 2.029971
-0.123456 0.361096 2.034199
-0.112636 0.362194 2.040389
-0.101692 0.363094 2.045456
-0.090929 0.364942 2.055867
-0.080192 0.367433 2.069900
-0.068332 0.364752 2.054798
-0.055368 0.353955 1.993974
-0.044496 0.354505 1.997072
-0.034412 0.363750 2.049154
-0.023229 0.364704 2.054527
-0.011916 0.363506 2.047778
-0.000677 0.361940 2.038956
0.010452 0.359920 2.027577
0.021527 0.359070 2.022787
0.032626 0.359064 2.022752
0.043633 0.358308 2.018492
0.054567 0.357384 2.013289
0.065557 0.357070 2.011522
0.076496 0.356614 2.008951
0.087631 0.357069 2.011513
0.099113 0.358676 2.020566
0.111093 0.361583 2.036947
0.124786 0.369023 2.078855
-0.246526 0.372696 2.036593
-0.233954 0.370483 2.024499
-0.221878 0.368874 2.015711
-0.210148 0.367704 2.009315
-0.198907 0.367306 2.007139
-0.188127 0.367761 2.009627
-0.177381 0.368344 2.012812
-0.166678 0.369102 2.016955
-0.155913 0.369818 2.020866
-0.145244 0.370889 2.026723
-0.134409 0.371679 2.031037
-0.123549 0.372539 2.035740
-0.112629 0.373369 2.040272
-0.101876 0.374995 2.049159
-0.091074 0.376824 2.059152
-0.080445 0.379990 2.076452
-0.069329 0.381519 2.084806
-0.056765 0.374107 2.044305
-0.045483 0.373577 2.041410
-0.034578 0.376800 2.059020
-0.023256 0.376422 2.056954
-0.011911 0.374584 2.046914
-0.000676 0.372391 2.034929
0.010443 0.370722 2.025810
0.021545 0.370477 2.024472
0.032643 0.370361 2.023835
0.043597 0.369085 2.016864
0.054497 0.367954 2.010683
0.065423 0.367353 2.007400
0.076436 0.367345 2.007352
0.087540 0.367723 2.009420
0.098956 0.369177 2.017368
0.110681 0.371376 2.029381
0.123662 0.377004 2.060134
0.139583 0.389899 2.130600
-0.246466 0.383776 2.036092
-0.233851 0.381424 2.023612
-0.221779 0.379765 2.014813
-0.210077 0.378600 2.008632
-0.199197 0.378870 2.010064
-0.188399 0.379336 2.012535
-0.177398 0.379425 2.013009
-0.166610 0.380012 2.016124
-0.155840 0.380729 2.019923
-0.145203 0.381902 2.026149
-0.134568 0.383278 2.033447
-0.123621 0.383933 2.036925
-0.112621 0.384534 2.040114
-0.102008 0.386739 2.051809
-0.091213 0.388714 2.062288
-0.080364 0.390986 2.074341
-0.069392 0.393310 2.086673
-0.058349 0.396077 2.101351
-0.046333 0.391961 2.079518
-0.034725 0.389753 2.067804
-0.023298 0.388401 2.060629
-0.011943 0.386846 2.052377
-0.000677 0.384575 2.040331
0.010459 0.382405 2.028816
0.021561 0.381866 2.025959
0.032622 0.381223 2.022548
0.043593 0.380114 2.016660
0.054390 0.378246 2.006750
0.065386 0.378159 2.006288
0.076456 0.378462 2.007896
0.087474 0.378462 2.007898
0.098671 0.379153 2.011565
0.110193 0.380826 2.020441
0.123131 0.386639 2.051281
-0.245588 0.393542 2.028842
-0.233809 0.392456 2.023245
-0.221699 0.390680 2.014088
-0.209532 0.388610 2.003417
-0.198769 0.389062 2.005747
-0.188070 0.389698 2.009023
-0.177317 0.390293 2.012094
-0.166524 0.390873 2.015081
-0.155996 0.392203 2.021939
-0.145136 0.392838 2.025212
-0.134436 0.394050 2.031458
-0.123631 0.395141 2.037084
-0.112776 0.396276 2.042936
-0.102044 0.398140 2.052543
-0.091209 0.400015 2.062211
-0.080459 0.402847 2.076812
-0.069484 0.405297 2.089440
-0.057751 0.403428 2.079805
-0.046520 0.405007 2.087948
-0.034843 0.402465 2.074841
-0.023318 0.400046 2.062370
-0.011953 0.398445 2.054117
-0.000679 0.396823 2.045756
0.010491 0.394737 2.035002
0.021587 0.393453 2.028381
0.032618 0.392274 2.022304
0.043613 0.391357 2.017578
0.054499 0.390036 2.010766
0.065387 0.389172 2.006313
0.076455 0.389472 2.007861
0.087534 0.389746 2.009274
0.098618 0.389981 2.010485
0.110294 0.392273 2.022298
0.122802 0.396831 2.045799
0.135700 0.401784 2.071333
-0.245325 0.404241 2.026668
-0.233635 0.403257 2.021737
-0.221059 0.400571 2.008269
-0.209529 0.399599 2.003395
-0.198706 0.399939 2.005101
-0.187729 0.399993 2.005371
-0.176977 0.400563 2.008229
-0.166661 0.402262 2.016746
-0.156091 0.403545 2.023180
-0.145090 0.403822 2.024569
-0.134544 0.405522 2.033089
-0.123837 0.406994 2.040470
-0.113001 0.408296 2.046997
-0.101964 0.409079 2.050922
-0.091154 0.411079 2.060951
-0.080597 0.414949 2.080355
-0.069599 0.417453 2.092908
-0.046573 0.416931 2.090288
-0.034923 0.414793 2.079569
-0.023355 0.412029 2.065713
-0.011945 0.409438 2.052722
-0.000678 0.407402 2.042518
0.010500 0.406266 2.036819
0.021591 0.404670 2.028818
0.032638 0.403614 2.023522
0.043621 0.402499 2.017933
0.054482 0.400943 2.010131
0.065363 0.400034 2.005576
0.076372 0.400055 2.005681
0.087412 0.400215 2.006484
0.098660 0.401181 2.011326
0.110256 0.403230 2.021601
0.122298 0.406382 2.037400
0.135691 0.413122 2.071192
-0.257103 0.416427 2.031865
-0.244660 0.414235 2.021173
-0.233125 0.413448 2.017329
-0.220990 0.411463 2.007646
-0.209504 0.410543 2.003156
-0.198471 0.410457 2.002735
-0.187705 0.410944 2.005116
-0.176960 0.411544 2.008043
-0.166421 0.412732 2.013839
-0.156024 0.414468 2.022310
-0.145208 0.415269 2.026217
-0.134562 0.416732 2.033355
-0.123808 0.418095 2.040006
-0.113018 0.419592 2.047308
-0.102072 0.420779 2.053100
-0.091114 0.422207 2.060067
-0.080540 0.426063 2.078883
-0.070329 0.433435 2.114853
-0.034913 0.426084 2.078985
-0.023358 0.423412 2.065947
-0.011950 0.420885 2.053621
-0.000679 0.419057 2.044697
0.010506 0.417690 2.038029
0.021615 0.416270 2.031103
0.032633 0.414649 2.023190
0.043566 0.413053 2.015403
0.054416 0.411475 2.007704
0.065338 0.410883 2.004815
0.076338 0.410876 2.004782
0.087398 0.411157 2.006154
0.098652 0.412187 2.011178
0.109995 0.413342 2.016812
0.122235 0.417349 2.036366
0.136353 0.426559 2.081303
-0.256722 0.426941 2.028849
-0.244690 0.425379 2.021426
-0.233002 0.424293 2.016267
-0.221009 0.422516 2.007821
-0.209458 0.421441 2.002713
-0.198064 0.420581 1.998624
-0.187570 0.421645 2.003683
-0.177091 0.422875 2.009528
-0.166435 0.423817 2.014004
-0.155820 0.425009 2.019666
-0.145265 0.426556 2.027018
-0.134669 0.428231 2.034979
-0.123952 0.429788 2.042376
-0.112953 0.430579 2.046138
-0.102121 0.432254 2.054096
-0.091369 0.434719 2.065812
-0.080707 0.438382 2.083216
-0.069433 0.439372 2.087920
-0.034930 0.437707 2.080008
-0.023402 0.435563 2.069822
-0.011962 0.432577 2.055630
-0.000681 0.431772 2.051806
0.010541 0.430305 2.044836
0.021653 0.428150 2.034594
0.032612 0.425480 2.021905
0.043577 0.424223 2.015931
0.054435 0.422637 2.008396
0.065262 0.421388 2.002461
0.076273 0.421518 2.003079
0.087420 0.422272 2.006661
0.098720 0.423514 2.012565
0.109978 0.424341 2.016493
0.122144 0.428203 2.034844
0.134975 0.433553 2.060267
-0.257285 0.439036 2.033304
-0.244967 0.436964 2.023711
-0.233062 0.435468 2.016780
-0.221008 0.433531 2.007813
-0.209540 0.432600 2.003498
-0.198142 0.431718 1.999415
-0.187362 0.432158 2.001452
-0.176688 0.432915 2.004957
-0.166442 0.434887 2.014090
-0.155874 0.436240 2.020357
-0.145507 0.438408 2.030398
-0.134475 0.438763 2.032041
-0.123784 0.440395 2.039603
-0.113116 0.442444 2.049092
-0.102270 0.444171 2.057088
-0.091596 0.447164 2.070951
-0.080864 0.450685 2.087257
-0.034953 0.449419 2.081392
-0.023430 0.447449 2.072270
-0.011996 0.445134 2.061547
-0.000682 0.443471 2.053844
0.010548 0.441809 2.046150
0.021643 0.439123 2.033708
0.032696 0.437697 2.027104
0.043603 0.435545 2.017140
0.054576 0.434779 2.013591
0.065409 0.433352 2.006984
0.076288 0.432595 2.003477
0.087405 0.433207 2.006312
0.098633 0.434174 2.010788
0.109945 0.435277 2.015899
0.122080 0.439138 2.033780
0.135687 0.447203 2.071129
-0.257162 0.449976 2.032328
-0.244991 0.448112 2.023909
-0.232906 0.446235 2.015429
-0.220698 0.443924 2.004992
-0.209550 0.443615 2.003597
-0.198419 0.443308 2.002209
-0.187586 0.443670 2.003846
-0.176793 0.444180 2.006146
-0.166543 0.446209 2.015312
-0.155958 0.447568 2.021452
-0.145371 0.449129 2.028501
-0.134745 0.450818 2.036128
-0.123855 0.451846 2.040770
-0.113220 0.454103 2.050968
-0.102668 0.457231 2.065094
-0.091895 0.460024 2.077708
-0.081395 0.465173 2.100962
-0.023417 0.458568 2.071131
-0.012029 0.457703 2.067226
-0.000683 0.455636 2.057890
0.010553 0.453262 2.047169
0.021672 0.450889 2.036449
0.032709 0.448999 2.027913
0.043574 0.446315 2.015791
0.054461 0.444892 2.009363
0.065326 0.443804 2.004452
0.076210 0.443134 2.001424
0.087268 0.443519 2.003164
0.098630 0.445193 2.010724
0.110073 0.446859 2.018246
0.121884 0.449573 2.030505
0.135101 0.456587 2.062186
-0.256850 0.460569 2.029866
-0.244707 0.458685 2.021562
-0.232648 0.456788 2.013199
-0.220624 0.454774 2.004324
-0.209122 0.453680 1.999502
-0.198113 0.453594 1.999125
-0.187192 0.453711 1.999638
-0.176583 0.454646 2.003761
-0.166555 0.457301 2.015462
-0.155829 0.458281 2.019779
-0.145568 0.460882 2.031244
-0.135072 0.463109 2.041060
-0.124008 0.463617 2.043300
-0.113290 0.465647 2.052245
-0.102720 0.468799 2.066139
-0.092049 0.472215 2.081191
-0.023460 0.470799 2.074950
-0.012033 0.469191 2.067863
-0.000682 0.466212 2.054735
0.010553 0.464462 2.047022
0.021670 0.462019 2.036254
0.032694 0.459922 2.027011
0.043526 0.456870 2.013562
0.054395 0.455365 2.006930
0.065302 0.454635 2.003712
0.076221 0.454185 2.001726
0.087368 0.455032 2.005459
0.098811 0.457063 2.014411
0.110214 0.458519 2.020830
0.121904 0.460793 2.030851
0.135485 0.469235 2.068056
0.146836 0.469243 2.068094
-0.257605 0.473094 2.035832
-0.245182 0.470690 2.025489
-0.233129 0.468802 2.017361
-0.220866 0.466282 2.006519
-0.209155 0.464724 1.999814
-0.198297 0.464995 2.000981
-0.187025 0.464269 1.997858
-0.176285 0.464854 2.000374
-0.166396 0.467913 2.013536
-0.155930 0.469666 2.021082
-0.145485 0.471759 2.030088
-0.134881 0.473638 2.038174
-0.124116 0.475243 2.045082
-0.113522 0.477883 2.056439
-0.102935 0.481141 2.070462
-0.092528 0.486153 2.092027
-0.023561 0.484258 2.083874
-0.012044 0.480993 2.069823
-0.000682 0.477571 2.055099
0.010538 0.475054 2.044268
0.021665 0.473083 2.035785
0.032676 0.470786 2.025902
0.043446 0.467053 2.009836
0.054308 0.465632 2.003724
0.065233 0.465138 2.001597
0.076179 0.464909 2.000610
0.087277 0.465555 2.003388
0.098723 0.467700 2.012623
0.110343 0.470156 2.023190
0.122164 0.472941 2.035175
0.136007 0.482432 2.076014
-0.257113 0.483339 2.031940
-0.245438 0.482308 2.027606
-0.233270 0.480162 2.018585
-0.220878 0.477317 2.006625
-0.209079 0.475526 1.999094
-0.198073 0.475436 1.998717
-0.186761 0.474561 1.995040
-0.176150 0.475468 1.998850
-0.166192 0.478375 2.011073
-0.156063 0.481168 2.022814
-0.145730 0.483711 2.033504
-0.134954 0.485086 2.039284
-0.124451 0.487778 2.050603
-0.113739 0.490101 2.060369
-0.103070 0.493146 2.073168
-0.012047 0.492467 2.070315
-0.000683 0.489150 2.056370
0.010551 0.486839 2.046654
0.021688 0.484759 2.037910
0.032692 0.482131 2.026862
0.043511 0.478804 2.012877
0.054287 0.476439 2.002934
0.065150 0.475514 1.999045
0.076106 0.475433 1.998704
0.087320 0.476777 2.004355
0.098767 0.478954 2.013507
0.110428 0.481629 2.024750
0.122729 0.486348 2.044591
0.136574 0.495883 2.084676
-0.257456 0.495149 2.034653
-0.245343 0.493241 2.026814
-0.233103 0.490887 2.017140
-0.220678 0.487887 2.004813
-0.208952 0.486199 1.997878
-0.197580 0.485194 1.993748
-0.186418 0.484617 1.991376
-0.176100 0.486296 1.998276
-0.165894 0.488531 2.007458
-0.156261 0.492890 2.025372
-0.145692 0.494740 2.032975
-0.135002 0.496452 2.040008
-0.124799 0.500423 2.056327
-0.114093 0.502969 2.066789
-0.103583 0.507037 2.083504
-0.012075 0.504985 2.075073
-0.000685 0.502245 2.063815
0.010583 0.499571 2.052826
0.021706 0.496356 2.039614
0.032705 0.493446 2.027658
0.043467 0.489353 2.010839
0.054229 0.486914 2.000814
0.065132 0.486344 1.998471
0.076258 0.487370 2.002688
0.087306 0.487698 2.004036
0.098781 0.490072 2.013794
0.110354 0.492406 2.023385
0.122564 0.496896 2.041835
0.136281 0.506235 2.080207
-0.257715 0.506823 2.036703
-0.245429 0.504540 2.027528
-0.233617 0.503061 2.021585
-0.220658 0.498842 2.004629
-0.208721 0.496612 1.995669
-0.197659 0.496332 1.994542
-0.186291 0.495204 1.990012
-0.176222 0.497605 1.999661
-0.166149 0.500314 2.010545
-0.156233 0.503915 2.025018
-0.145759 0.506129 2.033914
-0.135301 0.508768 2.044519
-0.124909 0.512157 2.058136
-0.114554 0.516387 2.075135
-0.000685 0.513635 2.064076
0.010597 0.511529 2.055612
0.021719 0.507841 2.040792
0.032695 0.504422 2.027055
0.043434 0.500002 2.009291
0.054194 0.497567 1.999508
0.065137 0.497353 1.998646
0.076234 0.498202 2.002060
0.087382 0.499128 2.005780
0.099062 0.502548 2.019524
0.110656 0.504888 2.028926
0.122834 0.509221 2.046339
0.136819 0.519693 2.088420
-0.256876 0.516311 2.030067
-0.245357 0.515514 2.026934
-0.233158 0.513143 2.017612
-0.221237 0.511180 2.009894
-0.208791 0.507732 1.996334
-0.197420 0.506663 1.992132
-0.186097 0.505598 1.987945
-0.175901 0.507652 1.996021
-0.165722 0.510034 2.005385
-0.156010 0.514290 2.022120
-0.146136 0.518627 2.039172
-0.135758 0.521744 2.051430
-0.125594 0.526323 2.069433
-0.114368 0.526917 2.071767
-0.000684 0.523866 2.059773
0.010588 0.522373 2.053900
0.021691 0.518376 2.038186
0.032624 0.514425 2.022651
