# .PCD v0.7 - Point Cloud Data file format
VERSION 0.7
FIELDS x y z
SIZE 4 4 4
TYPE F F F
COUNT 1 1 1
WIDTH 1736
HEIGHT 1
VIEWPOINT 0 0 0 1 0 0 0
POINTS 1736
DATA ascii
0.123646 0.221111 1.887346
0.220809 0.248921 2.124733
0.230046 0.246328 2.102597
0.240318 0.245039 2.091590
0.255276 0.248426 2.120508
-0.304400 0.251421 2.050051
-0.292587 0.250937 2.046106
-0.193356 0.226733 1.848752
-0.180111 0.222897 1.817468
-0.168695 0.221005 1.802046
-0.157713 0.219483 1.789632
-0.146802 0.217864 1.776428
-0.136194 0.216496 1.765279
-0.125907 0.215469 1.756901
-0.116078 0.215118 1.754042
-0.106281 0.214770 1.751202
-0.096337 0.214026 1.745139
-0.086708 0.213894 1.744058
-0.077145 0.213915 1.744234
-0.067639 0.214120 1.745903
-0.058245 0.214804 1.751482
-0.048803 0.215551 1.757568
-0.039299 0.216317 1.763818
-0.029734 0.217145 1.770566
-0.019943 0.216323 1.763868
-0.010221 0.215422 1.756520
-0.000582 0.214874 1.752049
0.009020 0.214578 1.749635
0.018589 0.214216 1.746684
0.028135 0.213929 1.744350
0.037825 0.214603 1.749841
0.047527 0.215054 1.753519
0.057275 0.215529 1.757391
0.067184 0.216387 1.764388
0.077276 0.217543 1.773818
0.087740 0.219371 1.788723
0.098245 0.220921 1.801358
0.109629 0.223986 1.826352
0.123455 0.231109 1.884426
-0.207017 0.240972 1.880707
-0.193105 0.236570 1.846352
-0.179697 0.232335 1.813295
-0.168193 0.230206 1.796682
-0.157420 0.228877 1.786307
-0.146479 0.227111 1.772523
-0.136005 0.225869 1.762830
-0.125664 0.224675 1.753512
-0.115815 0.224233 1.750068
-0.106019 0.223826 1.746889
-0.096231 0.223355 1.743211
-0.086569 0.223108 1.741281
-0.077120 0.223412 1.743655
-0.067653 0.223743 1.746243
-0.058273 0.224522 1.752320
-0.048878 0.225539 1.760256
-0.039389 0.226514 1.767868
-0.029782 0.227230 1.773458
-0.019954 0.226129 1.764861
-0.010229 0.225231 1.757856
-0.000582 0.224595 1.752888
0.009022 0.224231 1.750052
0.018561 0.223472 1.744129
0.028126 0.223430 1.743799
0.037789 0.223986 1.748140
0.047434 0.224240 1.750118
0.057178 0.224790 1.754414
0.067042 0.225590 1.760658
0.077104 0.226770 1.769865
0.087443 0.228410 1.782661
0.098035 0.230314 1.797521
0.109280 0.233263 1.820540
0.123213 0.240976 1.880737
-0.205254 0.249151 1.864687
-0.191605 0.244785 1.832011
-0.179052 0.241414 1.806779
-0.167877 0.239614 1.793310
-0.157130 0.238239 1.783017
-0.146270 0.236499 1.769998
-0.135744 0.235090 1.759448
-0.125543 0.234070 1.751818
-0.115686 0.233575 1.748114
-0.106163 0.233729 1.749263
-0.096318 0.233133 1.744802
-0.086702 0.233018 1.743947
-0.077107 0.232939 1.743356
-0.067664 0.233365 1.746543
-0.058205 0.233863 1.750271
-0.048934 0.235465 1.762257
-0.039370 0.236101 1.767019
-0.029724 0.236496 1.769973
-0.019975 0.236061 1.766717
-0.010234 0.234980 1.758629
-0.000583 0.234463 1.754757
0.009017 0.233705 1.749089
0.018586 0.233346 1.746396
0.028189 0.233518 1.747682
0.037823 0.233794 1.749752
0.047453 0.233933 1.750790
0.057114 0.234156 1.752460
0.066944 0.234907 1.758082
0.077007 0.236184 1.767640
0.087450 0.238210 1.782799
0.097916 0.239885 1.795336
0.108877 0.242355 1.813821
0.121927 0.248671 1.861097
-0.214909 0.258689 1.859698
-0.204428 0.258339 1.857186
-0.191528 0.254735 1.831276
-0.178759 0.250917 1.803828
-0.167270 0.248552 1.786825
-0.157047 0.247891 1.782076
-0.146339 0.246327 1.770832
-0.135667 0.244604 1.758443
-0.125613 0.243819 1.752800
-0.115687 0.243170 1.748136
-0.106061 0.243093 1.747582
-0.096289 0.242632 1.744268
-0.086690 0.242555 1.743715
-0.077251 0.242959 1.746618
-0.067689 0.243038 1.747183
-0.058254 0.243672 1.751740
-0.048914 0.245037 1.761555
-0.039458 0.246350 1.770992
-0.029816 0.246972 1.775463
-0.019992 0.245969 1.768254
-0.010241 0.244816 1.759967
-0.000582 0.243984 1.753986
0.009026 0.243541 1.750801
0.018591 0.243001 1.746920
0.028216 0.243340 1.749353
0.037804 0.243273 1.748874
0.047424 0.243395 1.749748
0.057158 0.243962 1.753825
0.067086 0.245072 1.761806
0.077010 0.245892 1.767704
0.087324 0.247636 1.780236
0.097799 0.249437 1.793183
0.108928 0.252425 1.814667
0.121226 0.257395 1.850398
0.136043 0.266532 1.916080
-0.215586 0.269740 1.865552
-0.203173 0.266881 1.845779
-0.190426 0.263261 1.820741
-0.178202 0.260002 1.798206
-0.167097 0.258089 1.784977
-0.156619 0.256969 1.777227
-0.146002 0.255455 1.766756
-0.135599 0.254126 1.757564
-0.125553 0.253315 1.751960
-0.115688 0.252765 1.748155
-0.105963 0.252449 1.745966
-0.096396 0.252484 1.746210
-0.086720 0.252209 1.744305
-0.077298 0.252698 1.747691
-0.067794 0.253018 1.749899
-0.058445 0.254116 1.757494
-0.049076 0.255545 1.767378
-0.039646 0.257283 1.779402
-0.029901 0.257449 1.780545
-0.020017 0.255994 1.770483
-0.010261 0.254958 1.763320
-0.000583 0.253882 1.755878
0.009032 0.253335 1.752095
0.018588 0.252538 1.746583
0.028162 0.252452 1.745987
0.037818 0.252959 1.749491
0.047439 0.253074 1.750293
0.057196 0.253754 1.754991
0.067061 0.254646 1.761160
0.076977 0.255482 1.766944
0.087308 0.257356 1.779903
0.097812 0.259310 1.793421
0.108835 0.262160 1.813132
0.120094 0.265052 1.833128
0.133023 0.270896 1.873548
-0.214114 0.278065 1.852817
-0.202014 0.275429 1.835253
-0.189839 0.272409 1.815129
-0.177663 0.269053 1.792767
-0.166799 0.267407 1.781798
-0.156323 0.266215 1.773858
-0.145953 0.265060 1.766164
-0.135395 0.263374 1.754925
-0.125495 0.262807 1.751148
-0.115761 0.262523 1.749255
-0.106221 0.262666 1.750211
-0.096491 0.262322 1.747920
-0.086786 0.261979 1.745632
-0.077353 0.262473 1.748922
-0.067995 0.263397 1.755079
-0.058737 0.265078 1.766283
-0.049217 0.266004 1.772454
-0.039690 0.267347 1.781400
-0.029953 0.267685 1.783652
-0.020095 0.266734 1.777313
-0.010282 0.265166 1.766866
-0.000584 0.264223 1.760582
0.009042 0.263224 1.753928
0.018606 0.262375 1.748270
0.028259 0.262941 1.752045
0.037830 0.262644 1.750064
0.047489 0.262953 1.752123
0.057274 0.263741 1.757369
0.067020 0.264146 1.760074
0.077105 0.265618 1.769878
0.087306 0.267116 1.779858
0.097590 0.268541 1.789359
0.108664 0.271681 1.810281
0.119695 0.274195 1.827030
0.131802 0.278597 1.856360
-0.212597 0.286190 1.839694
-0.200570 0.283459 1.822139
-0.188721 0.280706 1.804441
-0.177578 0.278757 1.791912
-0.166873 0.277307 1.782588
-0.156302 0.275913 1.773629
-0.146058 0.274949 1.767432
-0.135742 0.273702 1.759417
-0.125815 0.273109 1.755606
-0.115888 0.272419 1.751172
-0.106225 0.272282 1.750288
-0.096458 0.271822 1.747335
-0.087021 0.272293 1.750358
-0.077588 0.272896 1.754238
-0.068287 0.274200 1.762616
-0.059005 0.276024 1.774346
-0.049433 0.276942 1.780243
-0.039902 0.278600 1.790902
-0.030059 0.278454 1.789964
-0.020152 0.277277 1.782396
-0.010297 0.275281 1.769566
-0.000586 0.274369 1.763703
0.009064 0.273505 1.758153
0.018654 0.272681 1.752857
0.028278 0.272733 1.753186
0.037930 0.272967 1.754691
0.047562 0.272987 1.754819
0.057297 0.273493 1.758075
0.067142 0.274302 1.763271
0.077196 0.275654 1.771967
0.087241 0.276675 1.778530
0.097790 0.278930 1.793022
0.108486 0.281151 1.807302
0.119343 0.283384 1.821656
0.131008 0.287042 1.845167
0.144322 0.293529 1.886869
-0.211820 0.295202 1.832969
-0.199611 0.292053 1.813419
-0.188018 0.289525 1.797719
-0.177180 0.287942 1.787889
-0.166764 0.286900 1.781421
-0.156365 0.285759 1.774337
-0.145976 0.284487 1.766437
-0.135913 0.283714 1.761640
-0.125977 0.283107 1.757871
-0.115993 0.282284 1.752760
-0.106259 0.281975 1.750844
-0.096685 0.282072 1.751445
-0.087315 0.282851 1.756279
-0.077838 0.283434 1.759899
-0.068642 0.285350 1.771795
-0.059257 0.286979 1.781910
-0.049640 0.287909 1.787684
-0.040120 0.290003 1.800688
-0.030222 0.289839 1.799673
-0.020200 0.287735 1.786608
-0.010339 0.286151 1.776771
-0.000588 0.285172 1.770693
0.009097 0.284197 1.764639
0.018712 0.283171 1.758267
0.028321 0.282784 1.755863
0.037968 0.282876 1.756437
0.047641 0.283088 1.757752
0.057365 0.283479 1.760179
0.067164 0.284071 1.763859
0.077186 0.285344 1.771758
0.087289 0.286594 1.779523
0.097836 0.288905 1.793873
0.108309 0.290593 1.804355
0.119048 0.292655 1.817155
0.130019 0.294923 1.831240
0.143417 0.301977 1.875035
-0.210759 0.303730 1.823783
-0.199082 0.301203 1.808613
-0.187916 0.299226 1.796741
-0.177077 0.297580 1.786856
-0.166636 0.296447 1.780056
-0.156227 0.295234 1.772768
-0.145907 0.294041 1.765607
-0.135699 0.292918 1.758866
-0.126015 0.292841 1.758399
-0.116251 0.292550 1.756656
-0.106590 0.292490 1.756297
-0.097009 0.292659 1.757306
-0.087679 0.293707 1.763604
-0.078332 0.294948 1.771054
-0.069061 0.296873 1.782610
-0.059615 0.298548 1.792672
-0.050023 0.300015 1.801478
-0.040364 0.301703 1.811614
-0.030370 0.301175 1.808447
-0.020307 0.299123 1.796121
-0.010411 0.297969 1.789194
-0.000591 0.296634 1.781175
0.009138 0.295215 1.772656
0.018795 0.294124 1.766108
0.028389 0.293123 1.760095
0.038025 0.292951 1.759062
0.047711 0.293160 1.760318
0.057445 0.293543 1.762619
0.067389 0.294735 1.769773
0.077440 0.296034 1.777573
0.087679 0.297681 1.787461
0.098012 0.299285 1.797095
0.108232 0.300282 1.803081
0.118854 0.302132 1.814190
0.129795 0.304445 1.828082
0.142448 0.310156 1.862369
-0.219261 0.311598 1.811350
-0.210509 0.313365 1.821622
-0.198693 0.310520 1.805082
-0.187594 0.308556 1.793665
-0.176956 0.307174 1.785635
-0.166481 0.305930 1.778404
-0.156257 0.305020 1.773113
-0.146307 0.304560 1.770438
-0.136329 0.303974 1.767031
-0.126294 0.303160 1.762301
-0.116599 0.303094 1.761912
-0.106948 0.303142 1.762197
-0.097540 0.303957 1.766931
-0.088186 0.305139 1.773803
-0.078909 0.306910 1.784095
-0.069547 0.308810 1.795145
-0.059865 0.309678 1.800190
-0.050337 0.311850 1.812817
-0.040717 0.314374 1.827486
-0.030540 0.312840 1.818572
-0.020416 0.310634 1.805748
-0.010459 0.309178 1.797282
-0.000593 0.307482 1.787423
0.009165 0.305822 1.777775
0.018866 0.304954 1.772729
0.028509 0.304059 1.767524
0.038148 0.303584 1.764763
0.047955 0.304371 1.769341
0.057718 0.304654 1.770983
0.067572 0.305273 1.774584
0.077480 0.305945 1.778488
0.087728 0.307663 1.788477
0.098139 0.309547 1.799428
0.108308 0.310393 1.804342
0.118968 0.312387 1.815935
0.129729 0.314316 1.827152
0.142029 0.319432 1.856891
-0.222583 0.326409 1.838795
-0.210102 0.322736 1.818104
-0.198399 0.319950 1.802409
-0.187409 0.318083 1.791890
-0.176778 0.316653 1.783835
-0.166469 0.315665 1.778273
-0.156220 0.314676 1.772698
-0.146219 0.314086 1.769374
-0.136297 0.313597 1.766619
-0.126621 0.313640 1.766860
-0.116992 0.313817 1.767861
-0.107563 0.314610 1.772326
-0.097907 0.314831 1.773573
-0.088445 0.315794 1.778998
-0.079139 0.317623 1.789302
-0.069878 0.320179 1.803699
-0.060303 0.321894 1.813359
-0.050690 0.324052 1.825518
-0.041415 0.329962 1.858809
-0.031004 0.327721 1.846187
-0.020535 0.322407 1.816247
-0.010484 0.319803 1.801582
-0.000596 0.318699 1.795364
0.009205 0.316974 1.785643
0.018945 0.316004 1.780178
0.028676 0.315596 1.777883
0.038349 0.314916 1.774049
0.048106 0.315066 1.774895
0.057956 0.315670 1.778296
0.067718 0.315690 1.778411
0.077768 0.316877 1.785100
0.087889 0.318057 1.791743
0.098132 0.319396 1.799290
0.108337 0.320380 1.804830
0.118859 0.322055 1.814269
0.129615 0.324057 1.825548
0.141715 0.328893 1.852787
0.157266 0.340553 1.918475
-0.224428 0.339287 1.854033
-0.210430 0.333231 1.820937
-0.197956 0.329105 1.798390
-0.187284 0.327698 1.790703
-0.176841 0.326557 1.784471
-0.166751 0.325975 1.781288
-0.156610 0.325212 1.777122
-0.146474 0.324361 1.772467
-0.136598 0.324004 1.770520
-0.126882 0.324001 1.770501
-0.117405 0.324658 1.774092
-0.107920 0.325413 1.778219
-0.098428 0.326290 1.783012
-0.089045 0.327764 1.791067
-0.079509 0.328974 1.797677
-0.069993 0.330617 1.806652
-0.060594 0.333450 1.822134
-0.051081 0.336645 1.839595
-0.042181 0.346454 1.893196
-0.031195 0.339939 1.857592
-0.020710 0.335207 1.831737
-0.010576 0.332610 1.817545
-0.000600 0.330641 1.806784
0.009268 0.328997 1.797803
0.019036 0.327329 1.788688
0.028771 0.326427 1.783757
0.038525 0.326146 1.782223
0.048293 0.326065 1.781779
0.058127 0.326390 1.783555
0.067908 0.326362 1.783403
0.077904 0.327246 1.788234
0.087932 0.328048 1.792618
0.098066 0.329047 1.798077
0.108287 0.330130 1.803993
0.118855 0.331999 1.814207
0.129501 0.333782 1.823949
0.141718 0.339067 1.852830
0.157133 0.350783 1.916852
-0.223433 0.347911 1.845813
-0.209887 0.342337 1.816241
-0.197966 0.338990 1.798481
-0.187241 0.337446 1.790291
-0.176800 0.336270 1.784052
-0.166743 0.335733 1.781201
-0.156428 0.334574 1.775054
-0.146630 0.334441 1.774349
-0.137051 0.334825 1.776385
-0.127067 0.334202 1.773078
-0.117436 0.334481 1.774559
-0.107945 0.335247 1.778624
-0.098363 0.335851 1.781831
-0.089073 0.337701 1.791644
-0.079591 0.339187 1.799528
-0.069986 0.340494 1.806462
-0.060546 0.343173 1.820673
-0.051065 0.346632 1.839025
-0.041846 0.354008 1.878160
-0.031127 0.349371 1.853558
-0.020745 0.345838 1.834814
-0.010595 0.343188 1.820755
-0.000601 0.340952 1.808891
0.009285 0.339498 1.801176
0.019073 0.337812 1.792233
0.028857 0.337222 1.789103
0.038674 0.337224 1.789113
0.048386 0.336495 1.785244
0.058127 0.336175 1.783548
0.068030 0.336749 1.786594
0.077936 0.337194 1.788953
0.087892 0.337733 1.791813
0.098123 0.339112 1.799130
0.108259 0.339940 1.803524
0.118625 0.341294 1.810704
0.129375 0.343456 1.822176
0.141250 0.348079 1.846702
0.156116 0.358962 1.904441
-0.222206 0.356074 1.835679
-0.209592 0.351808 1.813687
-0.197805 0.348573 1.797012
-0.187127 0.347058 1.789201
-0.176754 0.345970 1.783591
-0.166794 0.345611 1.781739
-0.156615 0.344725 1.777175
-0.146731 0.344415 1.775574
-0.137013 0.344477 1.775895
-0.127407 0.344851 1.777823
-0.117674 0.344918 1.778168
-0.107923 0.344936 1.778260
-0.098459 0.345967 1.783576
-0.089040 0.347402 1.790972
-0.079686 0.349478 1.801678
-0.070110 0.351030 1.809678
-0.060619 0.353587 1.822862
-0.051010 0.356335 1.837029
-0.042022 0.365845 1.886054
-0.031176 0.360104 1.856459
-0.020814 0.357089 1.840916
-0.010610 0.353685 1.823363
-0.000601 0.351376 1.811464
0.009309 0.350272 1.805771
0.019153 0.349092 1.799687
0.028925 0.347850 1.793286
0.038712 0.347383 1.790877
0.048460 0.346813 1.787939
0.058389 0.347521 1.791589
0.068196 0.347401 1.790966
0.077972 0.347174 1.789796
0.088109 0.348423 1.796240
0.098239 0.349396 1.801252
0.108314 0.350013 1.804436
0.118733 0.351547 1.812341
0.129545 0.353918 1.824568
0.141116 0.357873 1.844957
0.155842 0.368763 1.901099
-0.222087 0.365950 1.834696
-0.209439 0.361496 1.812363
-0.197867 0.358546 1.797576
-0.187300 0.357205 1.790850
-0.176747 0.355743 1.783525
-0.166542 0.354852 1.779054
-0.156688 0.354643 1.778009
-0.146608 0.353860 1.774082
-0.136931 0.354010 1.774833
-0.127444 0.354709 1.778339
-0.117675 0.354676 1.778175
-0.108005 0.354963 1.779611
-0.098505 0.355921 1.784417
-0.088961 0.356911 1.789378
-0.079566 0.358821 1.798954
-0.070000 0.360396 1.806848
-0.060586 0.363392 1.821872
-0.051057 0.366757 1.838740
-0.041516 0.371663 1.863340
-0.031348 0.372331 1.866686
-0.020788 0.366739 1.838653
-0.010642 0.364764 1.828750
-0.000603 0.362226 1.816026
0.009326 0.360854 1.809149
0.019182 0.359510 1.802409
0.028991 0.358507 1.797379
0.038802 0.358033 1.795005
0.048622 0.357816 1.793918
0.058443 0.357682 1.793245
0.068267 0.357597 1.792819
0.078131 0.357720 1.793435
0.088105 0.358262 1.796153
0.098221 0.359216 1.800934
0.108452 0.360376 1.806749
0.118800 0.361698 1.813378
0.129923 0.364992 1.829891
0.141692 0.369498 1.852484
0.156550 0.380917 1.909733
0.173467 0.395599 1.983342
-0.222450 0.376632 1.837693
-0.209189 0.370997 1.810203
-0.197392 0.367526 1.793263
-0.187085 0.366610 1.788795
-0.176906 0.365857 1.785122
-0.166499 0.364518 1.778589
-0.156517 0.364002 1.776069
-0.146763 0.363980 1.775962
-0.136980 0.363878 1.775467
-0.127357 0.364220 1.777132
-0.117701 0.364516 1.778578
-0.108294 0.365703 1.784369
-0.098634 0.366192 1.786755
-0.089117 0.367374 1.792524
-0.079744 0.369519 1.802987
-0.070244 0.371600 1.813142
-0.060684 0.373992 1.824813
-0.051113 0.377255 1.840735
-0.041241 0.379360 1.851004
-0.020793 0.376911 1.839057
-0.010650 0.375081 1.830128
-0.000604 0.372862 1.819303
0.009329 0.370867 1.809565
0.019213 0.370010 1.805384
0.029053 0.369165 1.801260
0.038910 0.368905 1.799995
0.048729 0.368472 1.797879
0.058511 0.367947 1.795320
0.068355 0.367911 1.795143
0.078302 0.368366 1.797361
0.088177 0.368419 1.797620
0.098238 0.369161 1.801241
0.108517 0.370510 1.807824
0.118858 0.371829 1.814258
0.129819 0.374733 1.828428
0.142057 0.380640 1.857252
0.156301 0.390774 1.906698
-0.222511 0.386821 1.838197
-0.209766 0.381981 1.815197
-0.198049 0.378621 1.799231
-0.187433 0.377127 1.792128
-0.176967 0.375782 1.785738
-0.166770 0.374887 1.781485
-0.156557 0.373842 1.776520
-0.146828 0.373889 1.776742
-0.136959 0.373564 1.775198
-0.127270 0.373714 1.775912
-0.117798 0.374584 1.780043
-0.108253 0.375354 1.783704
-0.098605 0.375885 1.786229
-0.089199 0.377556 1.794168
-0.079720 0.379297 1.802442
-0.070306 0.381886 1.814745
-0.060797 0.384724 1.828229
-0.051374 0.389333 1.850135
-0.041960 0.396308 1.883280
-0.020863 0.388318 1.845309
-0.010655 0.385322 1.831073
-0.000605 0.383430 1.822082
0.009359 0.382052 1.815535
0.019261 0.380856 1.809852
0.029134 0.380107 1.806289
0.038983 0.379497 1.803391
0.048832 0.379133 1.801664
0.058681 0.378895 1.800533
0.068502 0.378572 1.798994
0.078224 0.377851 1.795569
0.088236 0.378535 1.798818
0.098311 0.379326 1.802579
0.108512 0.380414 1.807751
0.119040 0.382368 1.817037
0.130055 0.385465 1.831753
0.142075 0.390881 1.857492
0.156066 0.400632 1.903826
0.172010 0.413861 1.966692
-0.222500 0.396888 1.838105
-0.209866 0.392128 1.816060
-0.198287 0.388960 1.801390
-0.187515 0.387129 1.792911
-0.176854 0.385335 1.784602
-0.166701 0.384504 1.780752
-0.156646 0.383807 1.777527
-0.146657 0.383192 1.774675
-0.137053 0.383567 1.776414
-0.127365 0.383746 1.777243
-0.117874 0.384598 1.781190
-0.108271 0.385202 1.783987
-0.098824 0.386540 1.790183
-0.089168 0.387266 1.793545
-0.079741 0.389289 1.802912
-0.070579 0.393363 1.821780
-0.061080 0.396591 1.836731
-0.051386 0.399580 1.850573
-0.020990 0.400865 1.856523
-0.010673 0.396025 1.834110
-0.000606 0.393945 1.824477
0.009375 0.392687 1.818648
0.019306 0.391699 1.814073
0.029209 0.391014 1.810901
0.039050 0.390062 1.806494
0.048862 0.389259 1.802772
0.058655 0.388604 1.799742
0.068579 0.388882 1.801028
0.078275 0.387959 1.796755
0.088415 0.389193 1.802468
0.098521 0.390048 1.806430
0.108578 0.390569 1.808839
0.119111 0.392573 1.818124
0.130066 0.395550 1.831908
0.141939 0.400689 1.855710
0.156306 0.411712 1.906761
0.172502 0.425867 1.972318
-0.221311 0.404800 1.828287
-0.210019 0.402386 1.817385
-0.198626 0.399528 1.804476
-0.187984 0.397959 1.797388
-0.177064 0.395597 1.786723
-0.167046 0.395090 1.784434
-0.156642 0.393552 1.777487
-0.146821 0.393371 1.776668
-0.137058 0.393328 1.776475
-0.127206 0.393007 1.775024
-0.117701 0.393791 1.778564
-0.108399 0.395462 1.786112
-0.098950 0.396871 1.792475
-0.089319 0.397780 1.796580
-0.079982 0.400389 1.808364
-0.070707 0.404090 1.825080
-0.061259 0.407865 1.842130
-0.052239 0.416540 1.881314
-0.021035 0.411931 1.860495
-0.010719 0.407830 1.841971
-0.000608 0.405772 1.832680
0.009380 0.402862 1.819533
0.019312 0.401789 1.814691
0.029213 0.401011 1.811176
0.039101 0.400502 1.808875
0.048875 0.399263 1.803278
0.058587 0.398016 1.797649
0.068550 0.398596 1.800266
0.078462 0.398764 1.801026
0.088380 0.398929 1.801769
0.098612 0.400331 1.808103
0.109022 0.402131 1.816234
0.119143 0.402656 1.818603
0.130226 0.406100 1.834157
0.142139 0.411452 1.858333
0.154964 0.418550 1.890390
0.170268 0.431033 1.946772
-0.222436 0.416941 1.837583
-0.210054 0.412426 1.817685
-0.199064 0.410332 1.808456
-0.188094 0.408061 1.798445
-0.177405 0.406181 1.790161
-0.166963 0.404680 1.783544
-0.156876 0.403907 1.780140
-0.146888 0.403303 1.777477
-0.136861 0.402497 1.773924
-0.127192 0.402703 1.774833
-0.117864 0.404109 1.781028
-0.108333 0.405015 1.785021
-0.098980 0.406827 1.793007
-0.089650 0.409148 1.803238
-0.080233 0.411597 1.814032
-0.070860 0.415002 1.829039
-0.061351 0.418600 1.844893
-0.052481 0.428835 1.890002
-0.010735 0.418561 1.844721
-0.000608 0.415791 1.832513
0.009415 0.414386 1.826323
0.019360 0.412764 1.819173
0.029274 0.411807 1.814956
0.039169 0.411136 1.812000
0.048877 0.409175 1.803355
0.058594 0.407929 1.797865
0.068555 0.408501 1.800385
0.078469 0.408684 1.801192
0.088491 0.409328 1.804032
0.098688 0.410568 1.809494
0.109165 0.412639 1.818623
0.119567 0.414105 1.825086
0.130362 0.416598 1.836072
0.142105 0.421548 1.857887
0.154743 0.428310 1.887689
0.170452 0.442194 1.948878
-0.228756 0.420113 1.807842
-0.221953 0.426096 1.833590
-0.210258 0.422811 1.819451
-0.199173 0.420484 1.809439
-0.188091 0.417923 1.798419
-0.177762 0.416842 1.793765
-0.167076 0.414748 1.784756
-0.156654 0.413090 1.777623
-0.146839 0.412918 1.776882
-0.137147 0.413094 1.777638
-0.127495 0.413422 1.779051
-0.117890 0.413973 1.781422
-0.108313 0.414731 1.784683
-0.099052 0.416970 1.794316
-0.089807 0.419778 1.806401
-0.080266 0.421729 1.814795
-0.070908 0.425327 1.830278
-0.061451 0.429418 1.847884
-0.010748 0.429205 1.846968
-0.000610 0.427116 1.837981
0.009446 0.425830 1.832443
0.019436 0.424402 1.826298
0.029323 0.422465 1.817964
0.039157 0.420952 1.811453
0.048961 0.419785 1.806432
0.058706 0.418595 1.801311
0.068558 0.418400 1.800473
0.078507 0.418772 1.802074
0.088563 0.419567 1.805492
0.098736 0.420701 1.810371
0.108994 0.421954 1.815766
0.119664 0.424461 1.826552
0.130479 0.427055 1.837714
0.141991 0.431395 1.856392
0.154908 0.439135 1.889701
0.170246 0.452340 1.946523
-0.230111 0.432579 1.818548
-0.221983 0.436215 1.833834
-0.210100 0.432469 1.818085
-0.199171 0.430409 1.809423
-0.188307 0.428281 1.800480
-0.177702 0.426539 1.793156
-0.166913 0.424126 1.783011
-0.156522 0.422488 1.776125
-0.146673 0.422191 1.774876
-0.137000 0.422395 1.775732
-0.127554 0.423380 1.779873
-0.117836 0.423554 1.780606
-0.108293 0.424445 1.784351
-0.099046 0.426790 1.794212
-0.089864 0.429963 1.807550
-0.080593 0.433442 1.822173
-0.071309 0.437829 1.840618
-0.062049 0.443834 1.865863
-0.010871 0.444362 1.868084
-0.000614 0.439715 1.848548
0.009464 0.436712 1.835922
0.019464 0.435044 1.828911
0.029415 0.433807 1.823708
0.039238 0.431785 1.815209
0.049046 0.430444 1.809571
0.058765 0.428910 1.803123
0.068474 0.427753 1.798258
0.078460 0.428405 1.801000
0.088504 0.429186 1.804284
0.098605 0.430064 1.807975
0.108857 0.431378 1.813497
0.119559 0.434104 1.824960
0.130351 0.436709 1.835911
0.142061 0.441798 1.857304
0.154957 0.449646 1.890298
0.170731 0.464339 1.952065
-0.233572 0.449214 1.845899
-0.222714 0.447748 1.839876
-0.210449 0.443180 1.821104
-0.199251 0.440514 1.810149
-0.188246 0.438018 1.799894
-0.177444 0.435746 1.790559
-0.167035 0.434229 1.784322
-0.156806 0.433016 1.779338
-0.146685 0.431966 1.775023
-0.136798 0.431501 1.773113
-0.127401 0.432629 1.777748
-0.117924 0.433650 1.781946
-0.108619 0.435546 1.789736
-0.099461 0.438465 1.801729
-0.090399 0.442501 1.818314
-0.081156 0.446540 1.834913
-0.071793 0.450968 1.853106
-0.000615 0.451176 1.853961
0.009491 0.448017 1.840981
0.019495 0.445806 1.831896
0.029459 0.444476 1.826429
0.039329 0.442766 1.819406
0.049086 0.440737 1.811067
0.058857 0.439490 1.805941
0.068504 0.437815 1.799059
0.078423 0.438076 1.800132
0.088486 0.439000 1.803930
0.098629 0.440090 1.808407
0.109047 0.442096 1.816649
0.119794 0.444991 1.828546
0.130695 0.447964 1.840765
0.142761 0.454216 1.866454
0.155917 0.462871 1.902018
0.171646 0.477595 1.962521
-0.232487 0.457208 1.837323
-0.222656 0.457724 1.839394
-0.210445 0.453164 1.821071
-0.199479 0.450962 1.812220
-0.188117 0.447589 1.798666
-0.177557 0.445855 1.791700
-0.167009 0.443950 1.784043
-0.156645 0.442327 1.777520
-0.146644 0.441581 1.774523
-0.136935 0.441672 1.774887
-0.127448 0.442547 1.778403
-0.118009 0.443745 1.783219
-0.108866 0.446376 1.793794
-0.099879 0.450236 1.809304
-0.090851 0.454737 1.827391
-0.081557 0.458864 1.843974
-0.072086 0.463021 1.860681
-0.000623 0.466836 1.876013
0.009532 0.460132 1.849071
0.019554 0.457226 1.837393
0.029507 0.455239 1.829409
0.039413 0.453710 1.823264
0.049104 0.450837 1.811718
0.058877 0.449551 1.806551
0.068558 0.448040 1.800478
0.078552 0.448695 1.803111
0.088528 0.449108 1.804771
0.098578 0.449779 1.807467
0.109088 0.452234 1.817332
0.119862 0.455284 1.829589
0.130781 0.458366 1.841974
0.142520 0.463674 1.863303
0.156103 0.473871 1.904284
0.171957 0.489249 1.966080
-0.235255 0.472854 1.859200
-0.222943 0.468419 1.841763
-0.210426 0.463115 1.820907
-0.199711 0.461442 1.814329
-0.189004 0.459616 1.807148
-0.177730 0.456129 1.793439
-0.167094 0.453968 1.784942
-0.156807 0.452546 1.779351
-0.146869 0.452010 1.777243
-0.136955 0.451475 1.775139
-0.127386 0.452084 1.777534
-0.117932 0.453235 1.782060
-0.108992 0.456750 1.795881
-0.100025 0.460835 1.811941
-0.091227 0.466690 1.834962
-0.081986 0.471450 1.853680
0.009574 0.472356 1.857244
0.019618 0.468841 1.843421
0.029595 0.466669 1.834881
0.039466 0.464344 1.825738
0.049176 0.461458 1.814391
0.058941 0.459964 1.808518
0.068684 0.458756 1.803769
0.078560 0.458635 1.803294
0.088508 0.458911 1.804379
0.098574 0.459682 1.807407
0.109126 0.462370 1.817979
0.119873 0.465364 1.829752
0.131534 0.471169 1.852576
0.143336 0.476613 1.873980
0.156195 0.484604 1.905400
0.171154 0.497702 1.956899
-0.233482 0.479414 1.845186
-0.223564 0.479859 1.846896
-0.211188 0.474819 1.827497
-0.200210 0.472576 1.818867
-0.188478 0.468223 1.802113
-0.177738 0.465991 1.793519
-0.167214 0.464096 1.786226
-0.156693 0.461975 1.778064
-0.146926 0.461940 1.777928
-0.137206 0.462061 1.778397
-0.127483 0.462189 1.778886
-0.118244 0.464237 1.786770
-0.109094 0.467037 1.797547
-0.100321 0.472169 1.817299
-0.091951 0.480543 1.849529
-0.082770 0.486225 1.871396
0.009671 0.487437 1.876065
0.019725 0.481566 1.853467
0.029647 0.477563 1.838058
0.039474 0.474456 1.826102
0.049251 0.472125 1.817130
0.059081 0.471007 1.812826
0.068793 0.469399 1.806640
0.078794 0.469923 1.808654
0.088764 0.470166 1.809589
0.098790 0.470624 1.811353
0.109255 0.472902 1.820122
0.120076 0.476207 1.832842
0.131798 0.482300 1.856293
0.143391 0.487082 1.874698
0.156567 0.496238 1.909938
0.171953 0.510813 1.966032
-0.232153 0.486755 1.834690
-0.223292 0.489397 1.844651
-0.211029 0.484482 1.826126
-0.200187 0.482499 1.818651
-0.188481 0.478120 1.802145
-0.177338 0.474761 1.789482
-0.166908 0.473032 1.782965
-0.156923 0.472424 1.780676
-0.147116 0.472308 1.780237
-0.137263 0.472014 1.779131
-0.127672 0.472651 1.781531
-0.118510 0.475111 1.790803
-0.109598 0.479108 1.805867
-0.101175 0.486247 1.832778
-0.092606 0.494188 1.862706
0.019899 0.496084 1.869855
0.029812 0.490374 1.848333
0.039689 0.487117 1.836056
0.049426 0.483816 1.823612
0.059080 0.480944 1.812789
0.068970 0.480545 1.811286
0.078761 0.479648 1.807903
0.088700 0.479747 1.808276
0.098866 0.480937 1.812761
0.109331 0.483226 1.821389
0.120214 0.486823 1.834949
0.131985 0.493186 1.858932
0.143697 0.498428 1.878691
0.156478 0.506432 1.908857
0.171809 0.521164 1.964386
-0.222793 0.498402 1.840527
-0.211285 0.495100 1.828333
-0.199915 0.491809 1.816180
-0.188624 0.488379 1.803513
-0.177849 0.485977 1.794642
-0.167154 0.483525 1.785586
-0.157126 0.482819 1.782978
-0.147183 0.482294 1.781040
-0.137654 0.483149 1.784198
-0.128130 0.484154 1.787911
-0.118656 0.485532 1.792998
-0.110114 0.491316 1.814359
-0.101910 0.499911 1.846096
-0.093152 0.507379 1.873675
0.029995 0.503580 1.859646
0.039828 0.498929 1.842472
0.049503 0.494583 1.826422
0.059207 0.491949 1.816694
0.068997 0.490675 1.811990
0.078841 0.490066 1.809743
0.088716 0.489760 1.808611
0.098848 0.490791 1.812421
0.109515 0.494050 1.824453
0.120279 0.497163 1.835949
0.132012 0.503491 1.859318
0.144357 0.511075 1.887323
0.157398 0.519945 1.920079
0.170867 0.529027 1.953619
-0.222802 0.508523 1.840604
-0.211369 0.505334 1.829061
-0.200455 0.503132 1.821092
-0.188991 0.499243 1.807016
-0.177543 0.494973 1.791559
-0.167138 0.493276 1.785416
-0.157185 0.492786 1.783646
-0.147454 0.492974 1.784324
-0.137610 0.492784 1.783638
-0.128383 0.494942 1.791449
-0.119180 0.497559 1.800921
-0.110548 0.503248 1.821512
-0.102355 0.512265 1.854147
-0.093011 0.516878 1.870844
0.030183 0.517011 1.871325
0.039930 0.510341 1.847186
0.049672 0.506331 1.832672
0.059282 0.502554 1.818999
0.069095 0.501331 1.814572
0.078882 0.500254 1.810675
0.088864 0.500517 1.811625
0.099114 0.502084 1.817298
0.109744 0.505114 1.828265
0.120250 0.507114 1.835503
0.131748 0.512666 1.855600
0.144218 0.520929 1.885509
0.157542 0.530966 1.921838
0.173009 0.546512 1.978105
-0.224257 0.522010 1.852626
-0.211420 0.515496 1.829506
-0.200274 0.512662 1.819449
-0.188860 0.508806 1.805765
-0.177467 0.504585 1.790785
-0.167349 0.503707 1.787670
-0.157211 0.502656 1.783940
-0.147331 0.502344 1.782833
-0.137528 0.502271 1.782572
-0.128462 0.505082 1.792550
-0.119327 0.508067 1.803143
-0.110735 0.514114 1.824602
-0.102575 0.523565 1.858147
0.040092 0.522594 1.854699
0.049788 0.517599 1.836971
0.059437 0.513874 1.823753
0.069189 0.511981 1.817034
0.079035 0.511180 1.814190
0.088972 0.511076 1.813823
0.099140 0.512189 1.817771
0.109761 0.515227 1.828553
0.120280 0.517314 1.835959
0.132109 0.524280 1.860682
0.144617 0.532746 1.890727
0.157982 0.543024 1.927206
-0.223795 0.531079 1.848809
-0.211802 0.526484 1.832814
-0.200737 0.523851 1.823647
-0.188987 0.519064 1.806982
-0.177665 0.514985 1.792782
-0.167582 0.514231 1.790157
-0.157498 0.513380 1.787195
-0.147552 0.512895 1.785505
-0.137864 0.513303 1.786928
-0.128513 0.515122 1.793258
-0.119714 0.519642 1.808995
-0.111381 0.527179 1.835233
-0.103089 0.536433 1.867446
0.040208 0.534313 1.860069
0.049792 0.527712 1.837088
0.059417 0.523698 1.823114
0.069107 0.521333 1.814882
0.079098 0.521549 1.815634
0.088996 0.521171 1.814317
0.099140 0.522167 1.817783
0.109748 0.525199 1.828338
0.120606 0.528820 1.840943
0.132354 0.535479 1.864127
0.144528 0.542786 1.889563
0.158570 0.555658 1.934374
-0.212600 0.538563 1.839720
-0.200940 0.534399 1.825497
-0.189159 0.529461 1.808628
-0.178117 0.526160 1.797351
-0.167475 0.523719 1.789013
-0.157599 0.523523 1.788343
-0.147826 0.523665 1.788829
-0.138223 0.524468 1.791572
-0.128741 0.525895 1.796445
-0.120086 0.531212 1.814610
-0.111933 0.539912 1.844329
0.040353 0.546483 1.866775
0.049923 0.539211 1.841933
0.059570 0.535078 1.827815
0.069225 0.532205 1.818001
0.079279 0.532729 1.819791
0.089032 0.531341 1.815049
0.099348 0.533255 1.821590
0.109719 0.535090 1.827858
0.120621 0.538987 1.841168
0.132418 0.545970 1.865023
0.144325 0.552378 1.886912
0.157894 0.563859 1.926131
-0.212362 0.548042 1.837656
-0.200789 0.544007 1.824125
-0.189168 0.539410 1.808711
-0.178461 0.537057 1.800821
-0.167801 0.534574 1.792494
-0.157681 0.533614 1.789277
-0.148105 0.534486 1.792202
-0.138467 0.535245 1.794744
-0.128967 0.536692 1.799596
-0.120578 0.543385 1.822039
-0.112640 0.553510 1.855991
0.040476 0.558425 1.872470
0.050143 0.551737 1.850047
0.059830 0.547491 1.835807
0.069348 0.543137 1.821208
0.079181 0.542044 1.817543
0.089109 0.541771 1.816627
0.099387 0.543464 1.822304
0.109825 0.545644 1.829615
0.120919 0.550447 1.845718
0.132329 0.555833 1.863780
0.144463 0.563270 1.888718
0.158587 0.576949 1.934584
-0.212649 0.558880 1.840142
-0.200764 0.553946 1.823894
-0.188983 0.548798 1.806944
-0.178461 0.546937 1.800818
-0.167896 0.544719 1.793514
-0.157732 0.543607 1.789854
-0.147829 0.543305 1.788860
-0.138402 0.544834 1.793894
-0.129222 0.547645 1.803147
-0.120955 0.555116 1.827746
-0.113408 0.567537 1.868645
0.050351 0.564226 1.857742
0.059944 0.558627 1.839307
0.069511 0.554430 1.825487
0.079432 0.553766 1.823302
0.089339 0.553162 1.821313
0.099670 0.555042 1.827503
0.110143 0.557291 1.834908
0.120805 0.560046 1.843980
0.132150 0.565292 1.861252
0.144546 0.573960 1.889791
0.158337 0.586637 1.931532
-0.213017 0.569962 1.843325
-0.200009 0.561835 1.817042
-0.189301 0.559652 1.809983
-0.178225 0.556081 1.798431
-0.167835 0.554357 1.792858
-0.157766 0.553548 1.790242
-0.147738 0.552782 1.787764
-0.138575 0.555372 1.796140
-0.129374 0.558195 1.805268
-0.121012 0.565410 1.828605
-0.113846 0.580020 1.875856
0.050496 0.576067 1.863071
0.060131 0.570487 1.845023
0.069689 0.565899 1.830184
0.079476 0.564085 1.824320
0.089398 0.563527 1.822515
0.099700 0.565240 1.828054
0.109974 0.566493 1.832106
0.120781 0.570050 1.843610
0.131577 0.573011 1.853186
0.144029 0.582242 1.883042
0.159098 0.600109 1.940824
-0.212162 0.577747 1.835923
-0.199736 0.571024 1.814559
-0.188816 0.568124 1.805345
-0.178115 0.565600 1.797322
-0.167903 0.564426 1.793594
-0.157802 0.563499 1.790645
-0.147762 0.562683 1.788053
-0.138626 0.565435 1.796798
-0.129833 0.570117 1.811676
-0.121624 0.578356 1.837858
-0.113901 0.590598 1.876759
0.050583 0.587307 1.866302
0.060364 0.582861 1.852173
0.069917 0.577822 1.836161
0.079498 0.574253 1.824821
0.089326 0.573063 1.821037
0.099608 0.574739 1.826366
0.110055 0.576966 1.833441
0.120501 0.578819 1.839330
0.131074 0.580949 1.846098
0.142819 0.587596 1.867222
0.157337 0.603997 1.919338
-0.210697 0.583763 1.823249
-0.199120 0.579189 1.808964
-0.188496 0.577050 1.802283
-0.178156 0.575595 1.797739
-0.167973 0.574507 1.794339
-0.157753 0.573146 1.790088
-0.147979 0.573332 1.790672
-0.138836 0.576168 1.799527
-0.130239 0.581874 1.817348
-0.122458 0.592474 1.850455
-0.113614 0.599385 1.872039
0.050744 0.599442 1.872220
0.060430 0.593677 1.854212
0.070070 0.589183 1.840177
0.079531 0.584507 1.825573
0.089465 0.583965 1.823881
0.099760 0.585649 1.829139
0.110173 0.587655 1.835406
0.120386 0.588349 1.837574
0.130947 0.590507 1.844311
0.142038 0.594573 1.857013
0.154816 0.604680 1.888579
-0.209411 0.590144 1.812122
-0.198866 0.588363 1.806655
-0.188755 0.587749 1.804768
-0.178111 0.585312 1.797287
-0.167926 0.584189 1.793836
-0.157832 0.583261 1.790988
-0.148230 0.584147 1.793707
-0.138998 0.586726 1.801627
-0.131078 0.595657 1.829052
-0.122382 0.602253 1.849306
-0.113813 0.610720 1.875304
0.050745 0.609726 1.872253
0.060522 0.604771 1.857036
0.070320 0.601418 1.846743
0.079557 0.594717 1.826164
0.089508 0.594258 1.824756
0.099718 0.595435 1.828369
0.109945 0.596492 1.831614
0.120165 0.597333 1.834199
0.130782 0.599869 1.841986
0.141284 0.601551 1.847149
0.153280 0.608944 1.869850
-0.209099 0.599192 1.809418
-0.198360 0.596755 1.802061
-0.187945 0.595084 1.797014
-0.177716 0.593855 1.793302
-0.167524 0.592609 1.789540
-0.157835 0.593098 1.791015
-0.148259 0.594105 1.794059
-0.139238 0.597639 1.804729
-0.131367 0.607031 1.833090
-0.122224 0.611608 1.846912
-0.113476 0.619173 1.869757
0.050918 0.622119 1.878653
0.060700 0.616766 1.862490
0.070501 0.613129 1.851507
0.080044 0.608439 1.837343
0.089682 0.605443 1.828295
0.099662 0.605128 1.827343
0.109663 0.604988 1.826923
0.119912 0.606123 1.830349
0.130506 0.608692 1.838106
0.141012 0.610511 1.843599
0.152459 0.615886 1.859833
-0.209032 0.608927 1.808843
-0.198091 0.605819 1.799612
-0.187293 0.602848 1.790787
-0.177245 0.602093 1.788543
-0.167516 0.602401 1.789460
-0.157769 0.602674 1.790271
-0.148319 0.604196 1.794791
-0.139548 0.608896 1.808753
-0.131047 0.615584 1.828619
-0.122090 0.621064 1.844899
-0.114500 0.635114 1.886635
0.051106 0.634761 1.885585
0.060898 0.629038 1.868585
0.070626 0.624389 1.854774
0.080070 0.618725 1.837951
0.089725 0.615770 1.829172
0.099596 0.614747 1.826134
0.109554 0.614401 1.825106
0.119623 0.614682 1.825940
0.130304 0.617818 1.835256
0.140989 0.620524 1.843295
0.152217 0.625097 1.856878
-0.209176 0.619277 1.810086
-0.198240 0.616158 1.800969
-0.187091 0.612012 1.788851
-0.176922 0.610792 1.785284
-0.167111 0.610739 1.785131
-0.157454 0.611275 1.786697
-0.148434 0.614520 1.796181
-0.140288 0.622101 1.818339
-0.131103 0.625883 1.829395
-0.121935 0.630383 1.842547
0.060861 0.638895 1.867428
0.070648 0.634762 1.855346
0.080211 0.629918 1.841187
0.089863 0.626775 1.832001
0.099689 0.625351 1.827840
0.109407 0.623575 1.822648
0.119254 0.622773 1.820303
0.129926 0.626067 1.829932
0.141237 0.631749 1.846541
0.152431 0.636179 1.859487
0.166942 0.653031 1.908747
-0.219415 0.630091 1.812622
-0.208245 0.626408 1.802027
-0.197396 0.623374 1.793301
-0.186561 0.620066 1.783782
-0.176787 0.620116 1.783928
-0.167090 0.620456 1.784906
-0.157915 0.622895 1.791923
-0.149255 0.627831 1.806121
-0.140378 0.632485 1.819510
-0.131371 0.637221 1.833135
-0.122193 0.641849 1.846447
0.060959 0.650191 1.870445
0.070732 0.645710 1.857555
0.080586 0.643015 1.849801
0.089759 0.636089 1.829877
0.099466 0.633961 1.823757
0.109104 0.631826 1.817612
0.119004 0.631432 1.816482
0.129482 0.633935 1.823681
0.140679 0.639345 1.839243
0.151983 0.644483 1.854024
0.166381 0.661275 1.902331
-0.219679 0.640807 1.814802
-0.207517 0.634073 1.795733
-0.196463 0.630222 1.784826
-0.186177 0.628559 1.780117
-0.176419 0.628592 1.780209
-0.167025 0.630003 1.784206
-0.157970 0.632952 1.792556
-0.149643 0.639398 1.810812
-0.140801 0.644405 1.824993
-0.131729 0.649045 1.838135
0.070750 0.656076 1.858047
0.080793 0.654838 1.854540
0.089931 0.647370 1.833390
0.099470 0.643995 1.823832
0.108828 0.640172 1.813005
0.118511 0.638743 1.808957
0.128862 0.640857 1.814946
0.140144 0.646967 1.832248
0.151392 0.652110 1.846815
0.164271 0.663195 1.878207
-0.219157 0.649220 1.810493
-0.207065 0.642522 1.791817
-0.196095 0.638815 1.781476
-0.185579 0.636276 1.774397
-0.176019 0.636913 1.776174
-0.166812 0.638981 1.781940
-0.157394 0.640441 1.786012
-0.149419 0.648362 1.808100
-0.141036 0.655510 1.828035
-0.132510 0.663040 1.849035
0.070883 0.667523 1.861538
0.080718 0.664397 1.852820
0.089745 0.656068 1.829591
0.099272 0.652702 1.820204
0.108889 0.650483 1.814016
0.118466 0.648423 1.808273
0.128706 0.650030 1.812754
0.139753 0.655185 1.827130
0.150715 0.659280 1.838550
0.162798 0.667462 1.861367
-0.217583 0.654419 1.797489
-0.206233 0.649734 1.784619
-0.195573 0.646863 1.776734
-0.185396 0.645374 1.772645
-0.175709 0.645521 1.773047
-0.166421 0.647236 1.777758
-0.157013 0.648670 1.781698
-0.149281 0.657673 1.806427
-0.141700 0.668674 1.836642
-0.132302 0.672128 1.846128
0.080748 0.674819 1.853521
0.089782 0.666384 1.830351
0.099147 0.661850 1.817898
0.108816 0.659998 1.812810
0.118420 0.658088 1.807564
0.128382 0.658313 1.808183
0.139138 0.662284 1.819091
0.149815 0.665374 1.827579
0.162091 0.674730 1.853277
-0.229314 0.669739 1.812254
-0.216184 0.660012 1.785933
-0.205277 0.656468 1.776344
-0.195183 0.655303 1.773192
-0.184857 0.653199 1.767498
-0.175545 0.654639 1.771394
-0.166148 0.655911 1.774837
-0.156853 0.657773 1.779874
-0.149015 0.666398 1.803214
-0.141030 0.675544 1.827962
0.080704 0.684611 1.852497
0.089625 0.675237 1.827132
0.098734 0.669031 1.810339
0.108450 0.667692 1.806715
0.118544 0.668705 1.809456
0.128205 0.667314 1.805693
0.138548 0.669413 1.811373
0.148998 0.671718 1.817608
0.160526 0.678288 1.835386
0.174624 0.694297 1.878707
-0.227719 0.674955 1.799648
-0.215323 0.667144 1.778820
-0.204293 0.663023 1.767833
-0.194174 0.661595 1.764025
-0.184449 0.661433 1.763594
-0.175390 0.663771 1.769827
-0.166066 0.665323 1.773964
-0.156898 0.667732 1.780387
-0.148766 0.675162 1.800199
-0.141111 0.685969 1.829013
0.080881 0.696302 1.856565
0.089529 0.684534 1.825188
0.098624 0.678203 1.808308
0.108387 0.677210 1.805660
0.118143 0.676343 1.803349
0.128014 0.676214 1.803003
0.138195 0.677626 1.806768
0.148799 0.680779 1.815177
0.159305 0.683120 1.821419
0.171796 0.693194 1.848279
-0.225725 0.678833 1.783888
-0.214927 0.675659 1.775549
-0.204076 0.672010 1.765958
-0.193571 0.669192 1.758553
-0.183908 0.669141 1.758420
-0.174909 0.671635 1.764974
-0.165961 0.674631 1.772845
-0.156661 0.676476 1.777696
-0.148613 0.684335 1.798347
-0.141036 0.695634 1.828041
0.080432 0.702565 1.846253
0.089568 0.694851 1.825981
0.098666 0.688420 1.809083
0.108107 0.685342 1.800995
0.118116 0.686081 1.802936
0.127956 0.685795 1.802185
0.137771 0.685428 1.801219
0.148109 0.687539 1.806768
0.158687 0.690428 1.814359
0.170377 0.697529 1.833019
0.185479 0.717026 1.884256
-0.236381 0.691157 1.790458
-0.224490 0.684852 1.774123
-0.213805 0.681824 1.766281
-0.203584 0.680055 1.761697
-0.193120 0.677258 1.754452
-0.183410 0.676951 1.753656
-0.174288 0.678900 1.758704
-0.165771 0.683576 1.770820
-0.156386 0.685027 1.774577
-0.148575 0.694028 1.797893
-0.140455 0.702755 1.820502
0.080103 0.709779 1.838698
0.089587 0.705020 1.826370
0.098792 0.699241 1.811399
0.107930 0.694087 1.798048
0.117941 0.694942 1.800262
0.127668 0.694121 1.798135
0.137418 0.693531 1.796608
0.147638 0.695232 1.801013
0.157924 0.697015 1.805632
0.168813 0.701090 1.816189
0.183203 0.718441 1.861136
-0.234982 0.696834 1.779864
-0.223446 0.691357 1.765875
-0.213001 0.688913 1.759631
-0.202850 0.687234 1.755344
-0.192645 0.685197 1.750140
-0.182875 0.684570 1.748540
-0.173856 0.686845 1.754350
-0.165625 0.692681 1.769255
-0.156231 0.694074 1.772814
-0.148302 0.702597 1.794583
-0.141691 0.719017 1.836524
0.080131 0.720121 1.839343
0.089185 0.711833 1.818175
0.098672 0.708319 1.809198
0.107856 0.703469 1.796811
0.117871 0.704402 1.799194
0.127329 0.702113 1.793347
0.137047 0.701491 1.791759
0.147415 0.704053 1.798301
0.157723 0.706025 1.803339
0.168111 0.708101 1.808641
0.181152 0.720497 1.840304
-0.233897 0.703337 1.771643
-0.222767 0.698916 1.760509
-0.212332 0.696375 1.754106
-0.201770 0.693156 1.745998
-0.191834 0.691873 1.742766
-0.182550 0.692931 1.745432
-0.173960 0.696888 1.755400
-0.165291 0.700970 1.765681
-0.156280 0.704022 1.773369
-0.148192 0.711917 1.793256
-0.141193 0.726531 1.830067
0.080351 0.732219 1.844394
0.089479 0.724184 1.824156
0.098489 0.716915 1.805845
0.107865 0.713386 1.796956
0.117505 0.712054 1.793600
0.127134 0.710865 1.790606
0.137027 0.711216 1.791491
0.147148 0.712626 1.795042
0.157197 0.713533 1.797325
0.167602 0.715848 1.803158
0.180019 0.726023 1.828789
0.194650 0.743582 1.873016
-0.233343 0.711370 1.767450
-0.222027 0.706222 1.754658
-0.211492 0.703207 1.747168
-0.201515 0.701850 1.743796
-0.191385 0.699795 1.738690
-0.182286 0.701494 1.742913
-0.173574 0.704951 1.751500
-0.164621 0.707778 1.758524
-0.155894 0.711990 1.768989
-0.148230 0.721939 1.793710
-0.139583 0.728175 1.809202
0.080292 0.741794 1.843041
0.089415 0.733672 1.822859
0.098537 0.727176 1.806720
0.107804 0.722838 1.795943
0.117354 0.720971 1.791303
0.127201 0.721071 1.791553
0.136862 0.720180 1.789339
0.146775 0.720645 1.790493
0.156615 0.720715 1.790667
0.167518 0.725381 1.802261
0.179320 0.733203 1.821695
0.195504 0.757166 1.881233
-0.245320 0.727829 1.784022
-0.232760 0.719266 1.763031
-0.222100 0.716088 1.755242
-0.211383 0.712427 1.746268
-0.200990 0.709563 1.739249
-0.191563 0.709994 1.740304
-0.182116 0.710393 1.741282
-0.173199 0.713020 1.747722
-0.164242 0.715778 1.754481
-0.155573 0.720212 1.765349
-0.148178 0.731525 1.793082
-0.140680 0.743906 1.823428
0.079737 0.746710 1.830302
0.089067 0.740778 1.815762
0.098358 0.735752 1.803441
0.107802 0.732679 1.795908
0.117225 0.729997 1.789334
0.126894 0.729138 1.787230
0.136526 0.728203 1.784938
0.146277 0.727992 1.784420
0.156186 0.728542 1.785768
0.166943 0.732745 1.796072
0.178523 0.739893 1.813592
0.193198 0.758438 1.859048
-0.245247 0.737397 1.783486
-0.232251 0.727346 1.759176
-0.220968 0.722018 1.746290
-0.210836 0.720142 1.741752
-0.200779 0.718351 1.737420
-0.191270 0.718443 1.737644
-0.181790 0.718661 1.738171
-0.173231 0.722744 1.748045
-0.164170 0.725088 1.753716
-0.155292 0.728580 1.762160
-0.148305 0.742000 1.794620
-0.142274 0.762451 1.844082
0.079786 0.757216 1.831420
0.089164 0.751565 1.817753
0.098384 0.745842 1.803910
0.107592 0.741092 1.792423
0.117057 0.738754 1.786768
0.126820 0.738512 1.786182
0.136547 0.738111 1.785214
0.146225 0.737520 1.783783
0.156444 0.739560 1.788716
0.167002 0.742866 1.796712
0.178442 0.749503 1.812767
0.191688 0.762631 1.844518
-0.245531 0.748049 1.785554
-0.232245 0.736978 1.759127
-0.220545 0.730201 1.742951
-0.210247 0.727659 1.736882
-0.200286 0.726098 1.733156
-0.190920 0.726647 1.734467
-0.181856 0.728464 1.738803
-0.172895 0.730913 1.744649
-0.163668 0.732463 1.748349
-0.154976 0.736750 1.758583
-0.147863 0.749608 1.789273
-0.140472 0.762787 1.820731
0.080177 0.771033 1.840414
0.089382 0.763394 1.822182
0.098637 0.757689 1.808563
0.107742 0.751972 1.794917
0.117121 0.748964 1.787737
0.126702 0.747618 1.784524
0.136398 0.747092 1.783269
0.146156 0.746956 1.782943
0.156183 0.748121 1.785725
0.166711 0.751413 1.793582
0.178183 0.758348 1.810137
0.191495 0.771973 1.842659
-0.244087 0.753390 1.775053
-0.231349 0.743750 1.752340
-0.220541 0.739750 1.742915
-0.210239 0.737162 1.736818
-0.200266 0.735536 1.732987
-0.190744 0.735486 1.732869
-0.181651 0.737172 1.736841
-0.172621 0.739315 1.741890
-0.163420 0.740931 1.745698
-0.154945 0.746248 1.758226
-0.147597 0.758059 1.786054
-0.140317 0.771924 1.818721
0.079539 0.774910 1.825756
0.089267 0.772399 1.819840
0.098290 0.764910 1.802195
0.107532 0.760334 1.791412
0.117209 0.759348 1.789090
0.126563 0.756576 1.782559
0.136065 0.755030 1.778916
0.145872 0.755265 1.779471
0.155821 0.756162 1.781585
0.166205 0.758940 1.788128
0.178052 0.767716 1.808806
0.192103 0.784566 1.848507
-0.243317 0.760721 1.769450
-0.231210 0.752913 1.751287
-0.220254 0.748340 1.740651
-0.210123 0.746278 1.735855
-0.200383 0.745480 1.734000
-0.190730 0.744940 1.732744
-0.181510 0.746124 1.735496
-0.172697 0.749200 1.742651
-0.163457 0.750679 1.746091
-0.154863 0.755498 1.757300
-0.147407 0.766870 1.783752
-0.140403 0.782380 1.819829
0.078561 0.775281 1.803316
0.089006 0.780098 1.814521
0.097994 0.772463 1.796762
0.107515 0.770046 1.791140
0.117220 0.769236 1.789257
0.126699 0.767186 1.784486
0.136163 0.765343 1.780200
0.145801 0.764657 1.778606
0.156136 0.767488 1.785190
0.166481 0.770028 1.791099
0.178090 0.777811 1.809200
0.192344 0.795708 1.850831
-0.244032 0.772697 1.774655
-0.231781 0.764407 1.755616
-0.220412 0.758433 1.741896
-0.210544 0.757317 1.739333
-0.200725 0.756281 1.736953
-0.190485 0.753479 1.730517
-0.181708 0.756469 1.737384
-0.172944 0.759847 1.745144
-0.163396 0.759978 1.745443
-0.154533 0.763507 1.753549
-0.147425 0.776755 1.783977
-0.139511 0.787336 1.808278
0.088910 0.789205 1.812571
0.097889 0.781482 1.794833
0.107366 0.778787 1.788643
0.117277 0.779430 1.790118
0.126796 0.777569 1.785846
0.136217 0.775419 1.780909
0.145992 0.775431 1.780935
0.156200 0.777602 1.785922
0.166491 0.779902 1.791204
0.177719 0.786093 1.805424
0.190794 0.799368 1.835910
-0.244021 0.782397 1.774570
-0.232547 0.776597 1.761415
-0.220690 0.768960 1.744092
-0.210628 0.767170 1.740033
-0.200236 0.763946 1.732721
-0.190396 0.762616 1.729706
-0.181339 0.764448 1.733860
-0.172914 0.769292 1.744847
-0.163713 0.771049 1.748831
-0.154847 0.774702 1.757116
-0.148228 0.790824 1.793685
-0.140628 0.803639 1.822750
0.089092 0.800786 1.816278
0.098218 0.793997 1.800880
0.107599 0.790317 1.792534
0.117082 0.787940 1.787142
0.126984 0.788534 1.788489
0.136399 0.786237 1.783279
0.145843 0.784407 1.779128
0.156086 0.786826 1.784615
0.166656 0.790515 1.792982
0.178247 0.798367 1.810791
0.192049 0.814766 1.847987
-0.243638 0.790893 1.771790
-0.231588 0.783020 1.754151
-0.220383 0.777448 1.741670
-0.210799 0.777349 1.741447
-0.200477 0.774385 1.734808
-0.190696 0.773323 1.732429
-0.181902 0.776364 1.739242
-0.172878 0.778701 1.744477
-0.163572 0.779971 1.747322
-0.154959 0.784908 1.758383
-0.147784 0.798271 1.788318
0.089412 0.813661 1.822796
0.098582 0.806851 1.807539
0.107645 0.800493 1.793296
0.117320 0.799368 1.790775
0.127030 0.798639 1.789142
0.136727 0.797937 1.787570
0.145972 0.794871 1.780701
0.156076 0.796569 1.784505
0.166169 0.798017 1.787749
0.178110 0.807683 1.809403
0.194368 0.834871 1.870310
-0.231516 0.792400 1.753609
-0.221196 0.789906 1.748090
-0.211542 0.789675 1.747579
-0.201041 0.786111 1.739692
-0.190943 0.783843 1.734672
-0.181809 0.785503 1.738347
-0.173012 0.788887 1.745836
-0.164146 0.792332 1.753460
-0.156154 0.800686 1.771947
-0.148292 0.810860 1.794463
0.098814 0.818695 1.811802
0.107534 0.809497 1.791447
0.117151 0.808030 1.788199
0.126867 0.807420 1.786849
0.136917 0.808869 1.790055
0.146463 0.807344 1.786680
0.156245 0.807234 1.786438
0.165930 0.806664 1.785177
0.177463 0.814641 1.802829
0.192980 0.839096 1.856950
-0.231540 0.802104 1.753789
-0.220919 0.798498 1.745904
-0.211263 0.798210 1.745275
-0.201185 0.796227 1.740939
