ply
format ascii 1.0
element vertex 1289
property float x
property float y
property float z
property uchar red
property uchar green
property uchar blue
end_header
0.168027 0.036663 1.535749 87 94 127
0.175197 0.036402 1.524815 95 102 135
0.183041 0.036299 1.520471 99 107 144
0.190795 0.036187 1.515794 90 96 131
0.199524 0.036262 1.518927 96 106 136
0.209710 0.036585 1.532458 111 117 140
-0.346476 0.046278 1.576205 0 0 0
-0.330024 0.045209 1.539800 46 64 81
-0.320730 0.045090 1.535755 55 69 91
-0.312661 0.045142 1.537515 62 75 101
-0.305070 0.045267 1.541784 56 71 97
-0.298807 0.045603 1.553206 56 69 95
-0.292821 0.046001 1.566778 46 57 85
-0.286376 0.046350 1.578641 44 54 84
-0.279610 0.046666 1.589418 45 53 82
-0.273834 0.047173 1.606701 44 53 67
-0.216350 0.046194 1.573341 64 75 97
-0.202840 0.045109 1.536399 73 82 109
-0.192018 0.044555 1.517503 72 83 111
-0.182340 0.044227 1.506340 68 82 110
-0.173430 0.044063 1.500763 68 85 112
-0.164383 0.043846 1.493387 71 86 112
-0.154950 0.043499 1.481544 76 87 114
-0.145430 0.043087 1.467510 75 88 114
-0.136486 0.042807 1.457983 75 86 113
-0.127705 0.042547 1.449121 79 88 115
-0.119273 0.042376 1.443303 79 90 118
-0.111188 0.042313 1.441160 83 95 119
-0.103001 0.042199 1.437275 83 93 117
-0.094967 0.042133 1.435038 79 84 109
-0.087183 0.042177 1.436528 77 81 109
-0.079172 0.042109 1.434202 79 85 114
-0.071273 0.042091 1.433612 75 82 109
-0.063488 0.042145 1.435436 75 79 107
-0.055607 0.042142 1.435332 71 79 108
-0.047696 0.042111 1.434280 73 79 108
-0.039816 0.042100 1.433893 74 78 107
-0.031968 0.042127 1.434819 68 74 103
-0.024138 0.042201 1.437334 76 70 101
-0.016297 0.042320 1.441400 81 76 107
-0.008420 0.042481 1.446881 79 77 107
-0.000482 0.042587 1.450500 76 75 107
0.007526 0.042865 1.459960 73 72 106
0.015648 0.043171 1.470391 76 78 108
0.023875 0.043461 1.480245 68 74 103
0.032182 0.043711 1.488784 63 71 100
0.040558 0.043935 1.496395 67 75 104
0.048984 0.044129 1.503005 67 75 104
0.057629 0.044435 1.513443 73 79 108
0.066569 0.044864 1.528038 69 75 104
0.075871 0.045413 1.546754 72 74 104
0.086004 0.046299 1.576927 81 83 101
0.138868 0.046617 1.587761 0 0 0
0.145309 0.045900 1.563317 54 50 86
0.153018 0.045641 1.554493 52 52 88
0.160304 0.045289 1.542524 64 73 107
0.167377 0.044916 1.529808 78 84 119
0.174415 0.044569 1.518003 89 91 126
0.181993 0.044386 1.511768 97 93 129
0.189973 0.044313 1.509260 81 82 116
0.198632 0.044397 1.512137 82 87 118
0.209444 0.044936 1.530510 100 104 123
-0.329673 0.053601 1.538163 49 60 87
-0.320329 0.053450 1.533833 46 56 80
-0.312195 0.053499 1.535220 62 72 96
-0.304586 0.053642 1.539337 60 70 94
-0.297901 0.053961 1.548498 52 61 88
-0.291695 0.054388 1.560752 51 59 88
-0.286082 0.054955 1.577018 53 59 88
-0.280119 0.055488 1.592312 42 50 79
-0.275110 0.056250 1.614185 46 50 61
-0.215821 0.054693 1.569495 59 71 99
-0.203196 0.053634 1.539102 72 80 109
-0.192133 0.052913 1.518415 72 80 109
-0.182414 0.052513 1.506949 72 86 114
-0.173642 0.052362 1.502600 66 83 110
-0.164859 0.052191 1.497708 76 88 116
-0.155181 0.051705 1.483752 79 90 117
-0.145797 0.051268 1.471215 79 88 115
-0.136642 0.050865 1.459648 82 91 118
-0.127673 0.050486 1.448756 86 95 122
-0.119489 0.050387 1.445921 80 88 117
-0.110963 0.050119 1.438249 86 95 122
-0.102761 0.049969 1.433923 80 89 116
-0.094944 0.049995 1.434689 82 89 116
-0.087063 0.049990 1.434542 78 85 112
-0.079164 0.049973 1.434050 73 80 107
-0.071254 0.049945 1.433231 72 82 106
-0.063416 0.049965 1.433815 68 80 104
-0.055593 0.050005 1.434955 60 72 100
-0.047621 0.049902 1.432001 69 77 107
-0.039803 0.049952 1.433443 71 79 109
-0.031975 0.050010 1.435111 72 80 109
-0.024154 0.050122 1.438332 78 80 110
-0.016260 0.050116 1.438148 80 78 108
-0.008404 0.050328 1.444227 81 80 112
-0.000481 0.050447 1.447652 74 77 108
0.007510 0.050768 1.456856 74 77 108
0.015665 0.051295 1.471985 67 72 105
0.023943 0.051730 1.484452 70 75 108
0.032235 0.051965 1.491205 65 70 101
0.040621 0.052227 1.498730 60 65 96
0.049103 0.052503 1.506647 77 81 110
0.057587 0.052702 1.512353 77 79 109
0.066417 0.053127 1.524562 70 76 105
0.075760 0.053821 1.544480 74 80 109
0.085743 0.054785 1.572140 73 80 95
0.139879 0.055732 1.599316 0 0 0
0.145121 0.054407 1.561295 45 47 78
0.152679 0.054050 1.551050 51 56 89
0.159541 0.053497 1.535181 72 78 113
0.166908 0.053161 1.525523 66 72 109
0.174188 0.052830 1.516035 83 86 124
0.181720 0.052602 1.509493 79 83 118
0.189692 0.052516 1.507029 79 81 111
0.198037 0.052536 1.507605 83 87 116
0.208603 0.053120 1.524368 92 95 123
-0.329360 0.061982 1.536702 54 65 87
-0.320280 0.061857 1.533600 57 69 93
-0.311703 0.061825 1.532801 54 67 93
-0.303890 0.061947 1.535821 49 60 88
-0.296892 0.062247 1.543254 51 61 91
-0.291055 0.062814 1.557330 50 58 87
-0.285467 0.063472 1.573629 53 60 87
-0.279868 0.064168 1.590884 48 57 77
-0.274000 0.064845 1.607677 29 38 48
-0.214611 0.062950 1.560694 0 0 0
-0.202895 0.061987 1.536820 68 73 104
-0.192454 0.061347 1.520951 79 81 112
-0.182790 0.060907 1.510054 76 84 113
-0.173644 0.060607 1.502615 72 84 112
-0.164862 0.060411 1.497738 71 86 112
-0.155485 0.059964 1.486652 78 89 116
-0.145711 0.059306 1.470341 82 90 119
-0.136555 0.058837 1.458723 81 89 118
-0.127896 0.058537 1.451287 80 86 115
-0.119556 0.058353 1.446733 80 88 117
-0.111012 0.058037 1.438889 83 92 119
-0.102804 0.057861 1.434524 83 90 117
-0.094962 0.057879 1.434957 83 87 116
-0.087027 0.057838 1.433953 79 85 114
-0.079072 0.057775 1.432390 76 83 110
-0.071251 0.057806 1.433152 71 78 105
-0.063409 0.057826 1.433667 77 85 114
-0.055606 0.057892 1.435287 75 83 113
-0.047675 0.057825 1.433640 71 79 109
-0.039798 0.057810 1.433251 73 81 111
-0.031969 0.057874 1.434839 67 78 106
-0.024120 0.057931 1.436265 72 78 107
-0.016279 0.058077 1.439873 70 72 102
-0.008407 0.058273 1.444739 74 76 106
-0.000481 0.058479 1.449857 75 79 108
0.007525 0.058874 1.459645 68 73 104
0.015676 0.059411 1.472954 63 68 101
0.024030 0.060093 1.489849 67 69 104
0.032338 0.060340 1.495979 65 69 104
0.040637 0.060475 1.499340 69 72 103
0.049147 0.060824 1.507995 68 72 101
0.057691 0.061111 1.515091 78 82 111
0.066371 0.061449 1.523487 73 79 108
0.075508 0.062089 1.539355 72 80 109
0.085257 0.063052 1.563222 72 78 101
0.097659 0.065622 1.626934 115 114 123
0.145337 0.063068 1.563625 44 49 80
0.152163 0.062350 1.545808 49 58 92
0.159107 0.061752 1.531003 71 77 112
0.166289 0.061303 1.519869 73 74 112
0.173675 0.060968 1.511566 73 79 116
0.181447 0.060794 1.507228 73 76 114
0.189484 0.060719 1.505375 63 70 103
0.197945 0.060780 1.506902 82 90 119
0.208778 0.061536 1.525644 96 100 119
-0.343319 0.071566 1.561843 0 0 0
-0.328739 0.070282 1.533805 46 60 79
-0.319974 0.070205 1.532132 50 63 85
-0.311324 0.070150 1.530938 55 66 88
-0.303348 0.070248 1.533081 49 58 85
-0.296163 0.070541 1.539460 51 59 89
-0.290782 0.071293 1.555870 44 50 85
-0.285000 0.071989 1.571056 45 51 80
-0.279145 0.072709 1.586779 50 57 77
-0.275591 0.074094 1.617012 15 21 32
-0.213727 0.071219 1.554269 67 73 102
-0.202154 0.070163 1.531210 72 78 107
-0.192440 0.069687 1.520835 77 81 109
-0.182874 0.069225 1.510747 71 78 105
-0.173615 0.068841 1.502359 73 84 112
-0.164686 0.068555 1.496132 68 82 110
-0.155626 0.068183 1.488001 72 83 111
-0.145742 0.067388 1.470657 79 85 114
-0.136337 0.066735 1.456394 77 88 116
-0.127742 0.066421 1.449545 73 85 113
-0.119319 0.066160 1.443863 72 84 112
-0.110926 0.065881 1.437770 76 85 112
-0.102906 0.065797 1.435936 70 80 104
-0.094987 0.065770 1.435334 73 81 110
-0.087056 0.065728 1.434429 69 77 106
-0.079176 0.065721 1.434274 69 77 106
-0.071436 0.065840 1.436873 74 80 109
-0.063549 0.065837 1.436815 59 64 97
-0.055632 0.065798 1.435958 73 77 112
-0.047709 0.065738 1.434644 61 66 99
-0.039790 0.065661 1.432962 66 74 104
-0.031957 0.065723 1.434328 64 72 101
-0.024136 0.065858 1.437260 65 73 103
-0.016312 0.066109 1.442735 62 70 99
-0.008420 0.066303 1.446980 72 78 107
-0.000483 0.066623 1.453966 61 72 100
0.007541 0.067031 1.462864 66 71 104
0.015710 0.067644 1.476234 63 70 103
0.024027 0.068259 1.489662 65 73 103
0.032367 0.068610 1.497324 59 67 97
0.040624 0.068679 1.498840 61 66 97
0.049051 0.068965 1.505074 60 68 98
0.057722 0.069461 1.515905 65 70 101
0.066315 0.069750 1.522201 70 74 103
0.075225 0.070271 1.533576 75 82 109
0.084843 0.071282 1.555631 69 76 101
0.095216 0.072684 1.586236 118 121 129
0.144989 0.071476 1.559873 43 53 93
0.152103 0.070803 1.545192 54 59 98
0.158648 0.069951 1.526594 57 66 100
0.165679 0.069387 1.514287 72 81 115
0.173046 0.069012 1.506088 71 77 114
0.181047 0.068912 1.503906 68 73 112
0.189086 0.068834 1.502213 54 59 98
0.198043 0.069083 1.507654 61 69 99
0.208884 0.069943 1.526419 106 110 128
-0.341136 0.079627 1.551915 45 60 76
-0.327381 0.078373 1.527468 54 65 85
-0.318881 0.078343 1.526898 52 60 83
-0.310652 0.078381 1.527632 55 63 86
-0.302612 0.078470 1.529361 43 54 76
-0.295833 0.078900 1.537748 49 57 86
-0.289639 0.079516 1.549752 46 54 84
-0.284443 0.080452 1.567988 48 56 86
-0.279670 0.081569 1.589761 48 50 81
-0.213349 0.079607 1.551521 64 73 100
-0.202106 0.078546 1.530840 61 72 100
-0.192375 0.078006 1.520324 72 81 108
-0.182908 0.077529 1.511031 66 75 102
-0.174309 0.077393 1.508370 64 75 103
-0.165196 0.077003 1.500773 68 80 108
-0.155624 0.076347 1.487982 66 77 105
-0.145796 0.075486 1.471199 74 82 111
-0.136448 0.074786 1.457573 75 79 108
-0.127800 0.074408 1.450198 75 86 114
-0.119118 0.073959 1.441437 68 82 110
-0.110955 0.073790 1.438149 63 74 102
-0.102909 0.073679 1.435989 61 69 98
-0.094784 0.073488 1.432272 69 77 106
-0.087024 0.073572 1.433903 60 68 98
-0.079368 0.073769 1.437748 39 47 76
-0.071667 0.073963 1.441526 23 32 59
-0.063734 0.073936 1.441005 40 49 76
-0.055746 0.073829 1.438903 48 61 87
-0.047724 0.073634 1.435103 52 71 98
-0.039810 0.073562 1.433707 64 72 101
-0.031995 0.073680 1.436002 65 71 100
-0.024151 0.073789 1.438136 67 71 100
-0.016311 0.074023 1.442700 63 71 101
-0.008429 0.074322 1.448530 62 70 100
-0.000484 0.074783 1.457511 67 75 104
0.007570 0.075341 1.468384 68 75 102
0.015734 0.075856 1.478428 64 70 99
0.024037 0.076464 1.490273 59 65 94
0.032353 0.076792 1.496669 62 70 100
0.040648 0.076950 1.499733 59 66 99
0.049173 0.077415 1.508797 66 74 103
0.057689 0.077734 1.515022 70 78 107
0.066232 0.078006 1.520313 72 78 107
0.075219 0.078680 1.533460 69 77 106
0.084585 0.079575 1.550897 64 73 100
0.094721 0.080965 1.577991 108 113 122
0.144758 0.079908 1.557398 56 58 89
0.151582 0.079011 1.539899 50 58 95
0.158489 0.078249 1.525055 52 58 95
0.165472 0.077599 1.512397 66 76 110
0.172887 0.077205 1.504710 63 75 109
0.180592 0.076970 1.500128 65 73 110
0.188777 0.076951 1.499757 64 69 102
0.197600 0.077183 1.504277 77 80 108
0.208583 0.078206 1.524222 97 99 117
-0.341141 0.088144 1.551935 60 62 80
-0.327332 0.086741 1.527238 64 80 97
-0.318082 0.086505 1.523075 39 53 72
-0.309697 0.086497 1.522938 54 64 88
-0.302063 0.086704 1.526591 46 56 80
-0.295640 0.087281 1.536746 51 60 87
-0.289051 0.087841 1.546607 45 56 84
-0.283914 0.088890 1.565072 45 53 82
-0.279654 0.090287 1.589672 46 54 71
-0.213603 0.088225 1.553367 58 66 95
-0.202184 0.086980 1.531437 62 73 101
-0.192197 0.086268 1.518915 69 79 109
-0.183093 0.085907 1.512559 70 81 109
-0.174332 0.085681 1.508566 62 74 102
-0.165320 0.085302 1.501897 58 75 102
-0.155863 0.084641 1.490270 62 78 107
-0.146044 0.083701 1.473709 66 78 106
-0.136426 0.082771 1.457338 66 74 103
-0.127738 0.082326 1.449498 66 72 101
-0.119443 0.082091 1.445365 60 71 99
-0.111064 0.081761 1.439557 56 70 98
-0.102952 0.081592 1.436584 59 70 98
-0.094930 0.081473 1.434487 53 63 93
-0.087044 0.081458 1.434227 47 58 88
-0.079312 0.081600 1.436722 54 65 95
-0.071570 0.081762 1.439578 50 62 90
-0.063708 0.081810 1.440417 53 65 93
-0.055713 0.081676 1.438057 60 71 99
-0.047741 0.081537 1.435610 53 66 92
-0.039856 0.081523 1.435361 61 67 96
-0.032006 0.081589 1.436526 60 69 96
-0.024182 0.081784 1.439966 65 69 97
-0.016316 0.081963 1.443113 65 69 98
-0.008434 0.082319 1.449389 58 66 95
-0.000483 0.082712 1.456295 68 74 103
0.007560 0.083295 1.466574 67 71 100
0.015771 0.084168 1.481937 68 70 104
0.024051 0.084689 1.491113 67 70 101
0.032314 0.084903 1.494871 64 72 102
0.040711 0.085311 1.502064 65 76 104
0.049094 0.085556 1.506375 69 80 108
0.057576 0.085879 1.512055 75 84 111
0.066211 0.086320 1.519824 73 81 110
0.075257 0.087138 1.534236 64 71 104
0.084656 0.088159 1.552204 65 73 96
0.094200 0.089131 1.569312 102 104 115
0.145315 0.088794 1.563381 63 59 95
0.151553 0.087444 1.539614 51 52 90
0.158052 0.086378 1.520855 60 63 101
0.165037 0.085672 1.508423 67 74 107
0.172247 0.085145 1.499140 70 80 110
0.180026 0.084934 1.495422 66 74 103
0.188421 0.085020 1.496932 63 74 101
0.197350 0.085329 1.502377 81 85 113
0.208865 0.086686 1.526277 105 106 127
-0.339971 0.096328 1.546612 58 64 83
-0.327041 0.095036 1.525879 43 54 76
-0.317292 0.094626 1.519293 50 64 86
-0.308371 0.094447 1.516415 51 60 87
-0.301554 0.094920 1.524016 46 53 80
-0.295814 0.095770 1.537650 43 49 78
-0.288981 0.096304 1.546230 44 52 82
-0.283364 0.097289 1.562039 37 45 75
-0.278508 0.098604 1.583155 47 54 71
-0.213461 0.096684 1.552330 55 63 92
-0.202147 0.095365 1.531150 65 76 104
-0.192365 0.094686 1.520244 69 81 109
-0.183024 0.094171 1.511988 74 82 111
-0.174049 0.093806 1.506120 73 84 112
-0.165049 0.093389 1.499431 58 70 98
-0.155888 0.092833 1.490506 60 74 102
-0.146266 0.091926 1.475941 63 76 102
-0.136971 0.091130 1.463163 65 73 102
-0.127889 0.090386 1.451211 60 68 97
-0.119566 0.090115 1.446854 61 69 98
-0.111191 0.089762 1.441200 54 65 93
-0.103040 0.089552 1.437815 55 67 95
-0.095177 0.089576 1.438213 54 71 98
-0.087045 0.089330 1.434255 47 58 88
-0.079169 0.089322 1.434132 56 66 96
-0.071527 0.089608 1.438716 68 76 106
-0.063632 0.089606 1.438693 65 73 102
-0.055647 0.089461 1.436367 66 74 103
-0.047747 0.089426 1.435805 56 67 95
-0.039858 0.089403 1.435429 59 67 96
-0.032004 0.089465 1.436422 54 63 90
-0.024176 0.089664 1.439615 59 66 93
-0.016350 0.090070 1.446133 63 69 98
-0.008452 0.090466 1.452498 59 65 94
-0.000484 0.090773 1.457431 57 60 91
0.007569 0.091449 1.468279 63 65 99
0.015775 0.092324 1.482326 70 74 109
0.024058 0.092900 1.491578 65 72 105
0.032351 0.093212 1.496588 70 78 108
0.040654 0.093421 1.499942 70 78 107
0.048995 0.093633 1.503353 78 86 115
0.057498 0.094049 1.510017 75 81 110
0.066174 0.094606 1.518966 76 82 111
0.075206 0.095491 1.533180 64 72 101
0.084664 0.096685 1.552345 67 75 98
0.094528 0.098082 1.574781 99 103 114
0.145687 0.097622 1.567384 0 0 0
0.151457 0.095831 1.538630 55 57 92
0.157938 0.094655 1.519759 58 62 97
0.164811 0.093821 1.506359 59 67 96
0.172172 0.093331 1.498489 68 76 105
0.179959 0.093105 1.494866 63 71 100
0.188231 0.093139 1.495420 63 72 99
0.197072 0.093441 1.500256 73 80 105
0.208478 0.094885 1.523452 107 107 125
-0.338983 0.104510 1.542117 51 58 73
-0.327044 0.103410 1.525893 56 69 91
-0.317397 0.102997 1.519794 55 60 85
-0.308341 0.102758 1.516268 55 58 86
-0.300696 0.102989 1.519680 53 58 83
-0.294914 0.103890 1.532969 46 53 80
-0.288536 0.104627 1.543851 45 51 80
-0.283479 0.105902 1.562670 41 48 75
-0.277915 0.107062 1.579782 40 46 59
-0.213618 0.105279 1.553473 49 63 91
-0.201892 0.103636 1.529222 58 69 99
-0.191907 0.102782 1.516625 68 78 108
-0.182685 0.102278 1.509187 72 83 111
-0.173842 0.101949 1.504331 67 78 105
-0.164710 0.101408 1.496356 63 75 99
-0.155948 0.101051 1.491082 65 71 100
-0.146785 0.100380 1.481177 62 73 100
-0.137483 0.099530 1.468635 63 71 100
-0.128350 0.098704 1.456447 55 63 92
-0.119542 0.098034 1.446560 57 68 96
-0.111307 0.097773 1.442712 49 60 88
-0.103322 0.097708 1.441748 53 61 90
-0.095167 0.097458 1.438063 53 61 90
-0.087230 0.097406 1.437299 52 61 88
-0.079261 0.097305 1.435811 52 63 90
-0.071359 0.097273 1.435331 60 72 100
-0.063522 0.097332 1.436206 56 67 95
-0.055670 0.097382 1.436943 59 67 96
-0.047815 0.097442 1.437830 56 64 93
-0.039880 0.097332 1.436200 50 60 90
-0.032053 0.097495 1.438607 55 60 93
-0.024212 0.097710 1.441791 49 52 83
-0.016365 0.098092 1.447422 57 59 89
-0.008460 0.098532 1.453906 59 63 92
-0.000484 0.098858 1.458727 65 67 101
0.007563 0.099422 1.467049 62 63 97
0.015741 0.100238 1.479086 60 62 96
0.023960 0.100673 1.485507 72 77 108
0.032272 0.101175 1.492915 72 79 112
0.040547 0.101384 1.496000 73 84 114
0.048859 0.101598 1.499159 76 87 115
0.057529 0.102389 1.510831 71 77 106
0.066319 0.103166 1.522299 69 77 106
0.075420 0.104201 1.537560 68 76 105
0.084842 0.105425 1.555618 70 74 103
0.094988 0.107242 1.582439 108 110 128
0.147223 0.107342 1.583917 0 0 0
0.151193 0.104092 1.535956 52 56 91
0.157990 0.103028 1.520255 57 62 93
0.164785 0.102070 1.506121 55 63 92
0.171799 0.101333 1.495242 66 74 103
0.179733 0.101180 1.492990 57 68 96
0.187875 0.101153 1.492593 55 66 94
0.196628 0.101444 1.496882 91 99 128
0.208776 0.103392 1.525630 108 104 123
-0.336798 0.112243 1.532181 57 63 74
-0.326136 0.111473 1.521659 42 57 73
-0.316971 0.111187 1.517753 49 65 82
-0.308592 0.111168 1.517503 45 53 76
-0.300482 0.111249 1.518599 56 64 87
-0.294338 0.112082 1.529973 39 49 73
-0.288519 0.113092 1.543758 36 44 73
-0.283255 0.114387 1.561437 38 48 72
-0.278980 0.116174 1.585841 16 25 29
-0.214274 0.114153 1.558245 45 51 88
-0.203036 0.112662 1.537889 57 63 98
-0.192273 0.111316 1.519516 65 74 107
-0.182786 0.110620 1.510024 61 75 103
-0.173749 0.110144 1.503525 68 76 105
-0.164667 0.109590 1.495962 63 72 99
-0.155859 0.109171 1.490236 65 74 101
-0.146572 0.108350 1.479031 57 65 94
-0.137529 0.107624 1.469124 57 65 94
-0.128613 0.106913 1.459421 54 64 94
-0.120023 0.106398 1.452380 57 65 95
-0.111638 0.106003 1.446991 56 64 93
-0.103485 0.105785 1.444016 51 57 86
-0.095284 0.105477 1.439822 50 56 85
-0.087304 0.105382 1.438521 52 60 89
-0.079389 0.105353 1.438123 52 60 90
-0.071428 0.105250 1.436712 54 62 91
-0.063491 0.105161 1.435500 56 64 93
-0.055679 0.105284 1.437175 55 63 92
-0.047801 0.105301 1.437410 58 64 93
-0.039907 0.105284 1.437175 52 58 87
-0.032060 0.105412 1.438928 47 54 87
-0.024238 0.105732 1.443293 56 58 92
-0.016374 0.106093 1.448219 57 59 93
-0.008459 0.106493 1.453685 54 58 87
-0.000484 0.106907 1.459329 58 60 94
0.007579 0.107708 1.470275 59 64 97
0.015742 0.108365 1.479244 64 69 100
0.023969 0.108864 1.486046 67 72 103
0.032213 0.109170 1.490220 66 72 107
0.040501 0.109469 1.494305 69 81 115
0.048942 0.110011 1.501707 75 78 109
0.057478 0.110580 1.509477 72 80 109
0.066307 0.111499 1.522025 61 71 101
0.075246 0.112377 1.533999 72 79 112
0.084504 0.113506 1.549411 77 79 110
0.094597 0.115448 1.575929 115 115 131
0.151183 0.112513 1.535854 56 58 93
0.157913 0.111315 1.519513 49 54 87
0.164779 0.110331 1.506070 54 59 92
0.171368 0.109262 1.491485 67 75 104
0.178989 0.108920 1.486807 69 77 106
0.187777 0.109286 1.491810 58 66 95
0.196387 0.109523 1.495044 82 88 117
0.208239 0.111476 1.521708 108 106 126
-0.338394 0.121222 1.539437 52 60 77
-0.325486 0.119583 1.518628 48 63 79
-0.315493 0.118957 1.510676 46 61 77
-0.307193 0.118953 1.510622 41 52 72
-0.300649 0.119648 1.519441 49 59 83
-0.294227 0.120432 1.529399 41 50 77
-0.288295 0.121468 1.542561 34 45 72
-0.283378 0.123008 1.562113 31 44 66
-0.279575 0.125142 1.589221 5 14 17
-0.213994 0.122543 1.556207 47 54 87
-0.203091 0.121133 1.538302 53 60 93
-0.192650 0.119888 1.522498 60 71 103
-0.182979 0.119032 1.511622 62 76 105
-0.173718 0.118373 1.503251 59 70 102
-0.164948 0.118000 1.498521 59 69 99
-0.156098 0.117528 1.492519 63 74 102
-0.146977 0.116788 1.483121 58 66 95
-0.137991 0.116074 1.474059 52 64 92
-0.129185 0.115433 1.465916 55 66 96
-0.120471 0.114794 1.457802 57 65 95
-0.111918 0.114229 1.450627 52 58 87
-0.103543 0.113772 1.444832 50 56 85
-0.095513 0.113651 1.443285 53 61 90
-0.087531 0.113570 1.442260 48 60 88
-0.079553 0.113479 1.441105 46 54 84
-0.071544 0.113317 1.439052 46 54 84
-0.063641 0.113305 1.438895 45 53 83
-0.055738 0.113290 1.438704 52 57 88
-0.047875 0.113365 1.439662 48 53 86
-0.040016 0.113478 1.441095 48 53 84
-0.032163 0.113671 1.443538 51 56 87
-0.024258 0.113744 1.444476 57 61 90
-0.016377 0.114063 1.448526 50 55 86
-0.008463 0.114526 1.454403 56 61 92
-0.000485 0.115001 1.460437 56 64 94
0.007586 0.115877 1.471553 55 63 93
0.015766 0.116654 1.481423 62 70 99
0.023936 0.116857 1.484009 64 69 102
0.032178 0.117216 1.488566 67 72 105
0.040470 0.117578 1.493159 71 79 109
0.048961 0.118298 1.502303 64 72 101
0.057480 0.118868 1.509546 63 71 100
0.066198 0.119654 1.519524 67 72 105
0.075166 0.120665 1.532364 70 74 109
0.084628 0.122188 1.551701 95 93 122
0.094689 0.124216 1.577462 118 117 133
0.106563 0.128085 1.626588 106 107 111
0.151595 0.121269 1.540033 49 54 87
0.157785 0.119557 1.518288 46 54 84
0.164566 0.118441 1.504117 52 57 88
0.170941 0.117153 1.487768 63 69 98
0.178573 0.116806 1.483354 67 76 103
0.187135 0.117070 1.486714 77 85 114
0.195731 0.117333 1.490053 90 94 119
0.208036 0.119709 1.520222 104 104 120
-0.339130 0.129951 1.542788 48 54 65
-0.324467 0.127516 1.513870 45 55 73
-0.314687 0.126922 1.506819 58 66 83
-0.306452 0.126935 1.506978 53 64 84
-0.299990 0.127704 1.516111 39 49 73
-0.293768 0.128623 1.527015 38 48 72
-0.288119 0.129853 1.541621 35 44 71
-0.282972 0.131391 1.559875 29 46 67
-0.281108 0.134596 1.597935 6 15 18
-0.213769 0.130944 1.554571 45 55 89
-0.202258 0.129043 1.531998 45 60 93
-0.192576 0.128193 1.521911 54 67 99
-0.182819 0.127214 1.510295 54 68 96
-0.173461 0.126434 1.501030 59 73 101
-0.164859 0.126155 1.497711 60 74 103
-0.156143 0.125753 1.492943 63 73 103
-0.147191 0.125107 1.485280 53 64 92
-0.138133 0.124290 1.475580 55 66 94
-0.129351 0.123635 1.467803 53 65 93
-0.120675 0.123001 1.460267 52 60 89
-0.112249 0.122549 1.454912 52 60 89
-0.103808 0.122012 1.448533 50 59 86
-0.095662 0.121760 1.445541 50 60 84
-0.087700 0.121718 1.445037 52 61 88
-0.079757 0.121698 1.444798 48 56 85
-0.071672 0.121430 1.441620 52 60 90
-0.063789 0.121483 1.442245 42 53 81
-0.055845 0.121418 1.441481 51 59 88
-0.047939 0.121427 1.441584 45 51 80
-0.040056 0.121509 1.442562 45 48 79
-0.032190 0.121694 1.444750 44 46 77
-0.024302 0.121894 1.447125 46 51 82
-0.016408 0.122236 1.451195 45 53 83
-0.008477 0.122698 1.456674 51 59 89
-0.000486 0.123238 1.463082 49 54 85
0.007573 0.123739 1.469030 53 61 90
0.015695 0.124225 1.474802 60 68 97
0.023892 0.124772 1.481296 62 68 97
0.032143 0.125248 1.486951 66 64 94
0.040506 0.125884 1.494494 58 66 95
0.048963 0.126547 1.502376 61 69 98
0.057509 0.127216 1.510315 68 74 103
0.066191 0.127978 1.519360 74 75 109
0.074897 0.128612 1.526883 82 81 115
0.084298 0.130192 1.545649 98 94 123
0.094667 0.132841 1.577097 115 115 129
0.103954 0.133655 1.586760 109 108 112
0.152062 0.130120 1.544785 49 51 91
0.157713 0.127829 1.517589 48 54 83
0.164401 0.126567 1.502614 51 55 84
0.171021 0.125376 1.488467 68 72 101
0.178682 0.125022 1.484264 82 86 115
0.187228 0.125291 1.487456 76 80 109
0.196406 0.125942 1.495186 87 85 114
0.207730 0.127862 1.517983 105 105 123
-0.335325 0.136864 1.525478 51 56 71
-0.323892 0.135582 1.511191 54 64 81
-0.314239 0.134997 1.504671 68 79 99
-0.305822 0.134926 1.503882 48 59 81
-0.299729 0.135905 1.514791 41 52 74
-0.293795 0.137014 1.527151 33 42 69
-0.288670 0.138577 1.544569 37 41 69
-0.284725 0.140817 1.569539 42 45 59
-0.213589 0.139357 1.553268 42 53 81
-0.202093 0.137336 1.530742 52 66 95
-0.191891 0.136058 1.516499 51 68 95
-0.182713 0.135423 1.509423 53 70 97
-0.173841 0.134965 1.504316 56 70 98
-0.164883 0.134392 1.497926 61 75 103
-0.156166 0.133965 1.493165 57 68 96
-0.147364 0.133414 1.487025 58 68 98
-0.138359 0.132603 1.477992 56 64 93
-0.129405 0.131744 1.468409 53 61 90
-0.121022 0.131390 1.464472 53 61 90
-0.112545 0.130878 1.458756 47 54 81
-0.104011 0.130214 1.451359 54 61 86
-0.095910 0.130028 1.449283 47 55 84
-0.087934 0.129993 1.448898 46 52 81
-0.079842 0.129762 1.446325 52 58 87
-0.071947 0.129838 1.447170 37 45 74
-0.063948 0.129719 1.445845 32 43 71
-0.055911 0.129478 1.443160 43 51 80
-0.048058 0.129658 1.445163 41 47 76
-0.040119 0.129626 1.444803 48 52 81
-0.032246 0.129847 1.447270 48 52 81
-0.024355 0.130117 1.450278 43 48 79
-0.016412 0.130232 1.451557 42 50 80
-0.008493 0.130949 1.459553 49 51 86
-0.000486 0.131437 1.464994 57 61 90
0.007589 0.132070 1.472047 55 61 90
0.015709 0.132433 1.476091 61 67 96
0.023940 0.133167 1.484273 62 65 96
0.032256 0.133876 1.492180 59 71 99
0.040623 0.134469 1.498791 63 71 100
0.048990 0.134863 1.503176 69 75 104
0.057438 0.135336 1.508447 70 77 110
0.066064 0.136055 1.516460 75 80 111
0.074911 0.137017 1.527180 84 86 116
0.084565 0.139112 1.550535 103 98 125
0.094739 0.141602 1.578291 126 120 139
0.158178 0.136558 1.522065 49 58 85
0.164418 0.134826 1.502764 43 51 80
0.171238 0.133713 1.490353 64 68 97
0.178512 0.133039 1.482849 92 94 125
0.186403 0.132864 1.480899 94 92 122
0.196665 0.134323 1.497160 95 93 122
0.208184 0.136489 1.521300 96 98 109
-0.336686 0.145824 1.531668 36 45 59
-0.323569 0.143731 1.509684 52 64 82
-0.314470 0.143359 1.505780 50 61 83
-0.306280 0.143393 1.506136 49 59 83
-0.299384 0.144051 1.513047 42 52 76
-0.293533 0.145264 1.525789 39 48 75
-0.288843 0.147140 1.545493 36 43 68
-0.284596 0.149361 1.568828 16 25 35
-0.213361 0.147722 1.551606 50 61 88
-0.201835 0.145549 1.528788 53 65 93
-0.191462 0.144057 1.513107 56 68 96
-0.182250 0.143341 1.505596 61 73 101
-0.173577 0.143003 1.502038 57 65 94
-0.164862 0.142593 1.497736 60 72 100
-0.156128 0.142123 1.492803 52 63 91
-0.147243 0.141457 1.485807 56 64 93
-0.138649 0.141008 1.481092 53 61 90
-0.129810 0.140239 1.473012 47 55 84
-0.121133 0.139554 1.465819 49 57 86
-0.112611 0.138963 1.459606 50 57 84
-0.104132 0.138338 1.453047 48 55 82
-0.095979 0.138080 1.450328 43 51 80
-0.087943 0.137957 1.449041 42 50 79
-0.079973 0.137925 1.448701 41 47 76
-0.072132 0.138132 1.450883 41 49 78
-0.064113 0.138007 1.449568 41 49 78
-0.055995 0.137605 1.445348 42 47 78
-0.048109 0.137734 1.446698 42 46 75
-0.040243 0.137981 1.449298 47 51 79
-0.032339 0.138187 1.451460 41 48 73
-0.024397 0.138314 1.452794 36 45 72
-0.016474 0.138720 1.457060 45 51 80
-0.008496 0.138998 1.459976 50 55 86
-0.000487 0.139653 1.466849 57 61 90
0.007586 0.140102 1.471575 56 60 89
0.015738 0.140791 1.478802 58 60 90
0.023957 0.141412 1.485333 59 67 96
0.032288 0.142208 1.493689 61 65 94
0.040516 0.142319 1.494853 61 61 91
0.048790 0.142529 1.497063 65 64 96
0.057314 0.143303 1.505190 74 76 110
0.065867 0.143945 1.511935 75 80 113
0.074689 0.144964 1.522642 92 94 124
0.084347 0.147239 1.546536 110 106 131
0.094784 0.150334 1.579042 131 121 138
0.158123 0.144859 1.521534 48 52 93
0.164173 0.142859 1.500530 42 50 80
0.170890 0.141602 1.487324 61 67 96
0.178112 0.140860 1.479528 107 109 140
0.186382 0.140974 1.480734 97 97 127
0.196411 0.142354 1.495229 104 100 129
0.208041 0.144738 1.520261 98 99 113
-0.335394 0.153637 1.525793 0 0 0
-0.322315 0.151425 1.503829 45 59 77
-0.313630 0.151216 1.501756 49 60 80
-0.305404 0.151223 1.501824 52 60 83
-0.298979 0.152147 1.511003 41 48 75
-0.293640 0.153692 1.526347 40 44 72
-0.288790 0.155592 1.545209 37 38 72
-0.288717 0.160257 1.591546 42 57 96
-0.212461 0.155577 1.545061 44 55 85
-0.201306 0.153535 1.524782 55 69 97
-0.191568 0.152444 1.513945 59 73 101
-0.182348 0.151685 1.506408 64 76 104
-0.173336 0.151034 1.499952 58 70 98
-0.164761 0.150719 1.496818 47 64 91
-0.155902 0.150097 1.490641 48 60 88
-0.147309 0.149677 1.486473 42 53 81
-0.138756 0.149250 1.482230 50 56 85
-0.130254 0.148828 1.478043 48 54 83
-0.121450 0.147984 1.469654 44 53 80
-0.112736 0.147135 1.461223 50 59 86
-0.104436 0.146739 1.457293 45 52 79
-0.096259 0.146464 1.454565 43 49 78
-0.088156 0.146263 1.452565 45 52 79
-0.080060 0.146033 1.450284 43 50 77
-0.072170 0.146171 1.451651 36 44 73
-0.064261 0.146299 1.452922 39 47 76
-0.056150 0.145939 1.449344 40 48 77
-0.048250 0.146097 1.450918 40 46 75
-0.040339 0.146282 1.452757 43 43 73
-0.032401 0.146430 1.454220 39 42 70
-0.024454 0.146629 1.456197 40 47 74
-0.016492 0.146877 1.458659 45 49 78
-0.008501 0.147102 1.460899 51 55 84
-0.000488 0.148049 1.470302 55 58 86
0.007592 0.148292 1.472711 60 61 87
0.015756 0.149082 1.480559 64 66 90
0.023974 0.149667 1.486370 60 64 88
0.032196 0.149976 1.489436 58 62 90
0.040407 0.150116 1.490827 63 64 98
0.048693 0.150443 1.494075 66 66 106
0.057199 0.151257 1.502159 73 74 112
0.065724 0.151909 1.508640 80 82 116
0.074536 0.153005 1.519525 86 88 118
0.083991 0.155069 1.540015 108 104 129
0.094496 0.158516 1.574251 128 121 134
0.158362 0.153440 1.523837 49 49 85
0.164093 0.151018 1.499792 53 53 89
0.170791 0.149676 1.486465 63 64 98
0.177598 0.148548 1.475258 104 107 138
0.185948 0.148752 1.477286 100 102 132
0.194971 0.149455 1.484261 109 107 129
0.204609 0.150554 1.495181 75 77 87
-0.338765 0.163637 1.541125 0 0 0
-0.322297 0.159668 1.503749 43 62 77
-0.312813 0.159041 1.497842 47 58 78
-0.304741 0.159118 1.498568 47 58 80
-0.298940 0.160417 1.510805 47 52 77
-0.293675 0.162087 1.526529 39 43 72
-0.288820 0.164087 1.545371 29 38 71
-0.211389 0.163227 1.537265 43 56 88
-0.200682 0.161400 1.520056 51 60 94
-0.191536 0.160724 1.513690 61 68 101
-0.182001 0.159646 1.503537 72 79 112
-0.172902 0.158866 1.496192 68 79 107
-0.164464 0.158645 1.494118 57 69 97
-0.155783 0.158155 1.489502 55 63 92
-0.147128 0.157639 1.484638 49 57 86
-0.138891 0.157537 1.483678 44 52 81
-0.130380 0.157091 1.479481 41 49 78
-0.121899 0.156624 1.475081 40 48 78
-0.113203 0.155797 1.467287 43 51 80
-0.104594 0.154969 1.459493 37 45 74
-0.096337 0.154570 1.455736 41 48 73
-0.088299 0.154483 1.454912 44 48 73
-0.080290 0.154434 1.454454 42 47 72
-0.072324 0.154464 1.454740 36 47 74
-0.064225 0.154185 1.452109 37 48 75
-0.056252 0.154170 1.451971 35 45 69
-0.048332 0.154321 1.453389 37 44 69
-0.040404 0.154500 1.455077 43 47 75
-0.032433 0.154564 1.455681 41 45 74
-0.024489 0.154837 1.458253 39 43 72
-0.016525 0.155187 1.461550 45 51 80
-0.008546 0.155932 1.468558 48 51 79
-0.000489 0.156272 1.471767 54 57 85
0.007595 0.156440 1.473343 55 58 86
0.015738 0.157021 1.478823 52 58 87
0.023964 0.157753 1.485717 55 63 93
0.032192 0.158127 1.489236 57 61 96
0.040354 0.158090 1.488887 65 64 103
0.048645 0.158486 1.492613 69 65 106
0.057012 0.158979 1.497263 78 74 110
0.065551 0.159766 1.504669 84 79 111
0.074212 0.160641 1.512914 86 83 115
0.083353 0.162276 1.528314 100 96 125
0.093778 0.165883 1.562278 119 116 132
0.104418 0.169234 1.593845 166 165 169
0.158698 0.162145 1.527076 0 0 0
0.163973 0.159132 1.498698 49 51 86
0.170122 0.157214 1.480641 66 70 105
0.176496 0.155671 1.466103 83 90 123
0.184677 0.155786 1.467189 122 125 156
0.194499 0.157218 1.480673 105 106 127
0.206121 0.159931 1.506230 60 59 69
-0.322414 0.167980 1.504293 46 64 81
-0.311709 0.166670 1.492559 45 59 78
-0.304029 0.166949 1.495064 52 60 83
-0.298520 0.168470 1.508683 50 54 78
-0.293356 0.170278 1.524869 36 43 68
-0.289751 0.173123 1.550350 34 45 75
-0.209919 0.170468 1.526575 51 57 92
-0.200184 0.169319 1.516283 58 62 97
-0.190677 0.168272 1.506907 62 63 101
-0.181598 0.167524 1.500209 66 72 109
-0.172884 0.167058 1.496033 65 72 105
-0.164248 0.166625 1.492154 71 79 109
-0.155913 0.166467 1.490743 65 76 103
-0.146929 0.165562 1.482636 53 61 90
-0.138710 0.165461 1.481738 52 58 87
-0.130295 0.165102 1.478517 52 58 87
-0.121980 0.164828 1.476065 43 51 80
-0.113314 0.164008 1.468719 39 48 75
-0.104776 0.163261 1.462037 38 50 74
-0.096611 0.163022 1.459888 33 44 66
-0.088494 0.162825 1.458132 35 46 68
-0.080372 0.162580 1.455935 34 44 68
-0.072442 0.162711 1.457112 38 47 74
-0.064339 0.162441 1.454688 38 45 70
-0.056356 0.162436 1.454648 38 45 70
-0.048398 0.162518 1.455380 34 41 68
-0.040488 0.162823 1.458112 35 39 68
-0.032545 0.163111 1.460693 36 36 66
-0.024569 0.163374 1.463042 36 38 68
-0.016534 0.163302 1.462399 38 45 72
-0.008553 0.164121 1.469734 44 47 75
-0.000488 0.164285 1.471204 50 51 79
0.007598 0.164572 1.473777 60 62 92
0.015753 0.165298 1.480278 52 59 92
0.023932 0.165685 1.483742 48 56 93
0.032122 0.165938 1.486009 64 68 103
0.040289 0.165991 1.486479 73 72 106
0.048607 0.166546 1.491447 76 70 105
0.056942 0.166988 1.495406 82 77 109
0.065439 0.167735 1.502097 82 82 112
0.073895 0.168222 1.506462 77 79 109
0.082915 0.169765 1.520282 94 89 118
0.093649 0.174216 1.560136 123 118 133
0.158762 0.170592 1.527687 0 0 0
0.163643 0.167018 1.495680 48 55 88
0.170191 0.165406 1.481240 66 70 105
0.176313 0.163545 1.464579 91 101 131
0.183999 0.163235 1.461802 88 94 123
0.194038 0.164950 1.477158 90 87 112
0.208068 0.169785 1.520459 45 46 56
-0.321230 0.175587 1.498768 40 52 70
-0.310931 0.174423 1.488832 59 73 92
-0.302954 0.174534 1.489780 49 62 84
-0.297624 0.176218 1.504156 38 48 72
-0.293393 0.178667 1.525062 28 39 66
-0.288948 0.181127 1.546055 28 50 78
-0.223653 0.183234 1.564040 0 0 0
-0.209332 0.178345 1.522309 52 58 93
-0.199831 0.177326 1.513608 58 64 101
-0.190438 0.176319 1.505020 64 68 103
-0.181298 0.175465 1.497730 71 76 109
-0.172514 0.174892 1.492837 74 80 109
-0.164014 0.174563 1.490028 80 84 113
-0.155621 0.174321 1.487959 71 73 103
-0.146858 0.173613 1.481921 59 67 97
-0.138770 0.173667 1.482383 59 67 96
-0.130343 0.173277 1.479052 56 60 88
-0.121865 0.172765 1.474678 57 61 86
-0.113655 0.172585 1.473142 49 55 78
-0.105113 0.171834 1.466733 44 54 78
-0.096665 0.171126 1.460691 43 50 77
-0.088538 0.170910 1.458847 37 44 71
-0.080428 0.170687 1.456947 42 49 76
-0.072372 0.170542 1.455706 47 52 77
-0.064453 0.170723 1.457250 49 53 78
-0.056500 0.170854 1.458372 45 49 78
-0.048475 0.170774 1.457687 34 40 69
-0.040526 0.170983 1.459472 34 38 66
-0.032540 0.171102 1.460488 38 39 65
-0.024569 0.171401 1.463040 41 42 68
-0.016576 0.171763 1.466126 43 48 73
-0.008559 0.172317 1.470858 48 52 80
-0.000488 0.172323 1.470909 47 47 77
0.007608 0.172902 1.475847 56 56 86
0.015760 0.173497 1.480930 52 55 86
0.023860 0.173305 1.479285 57 59 90
0.032002 0.173438 1.480428 71 73 107
0.040205 0.173786 1.483393 72 74 108
0.048504 0.174356 1.488265 79 76 108
0.056968 0.175273 1.496091 81 79 109
0.065436 0.175968 1.502024 86 88 118
0.073886 0.176467 1.506278 77 79 109
0.082680 0.177602 1.515970 96 92 121
0.092717 0.180958 1.544615 126 122 134
0.163755 0.175346 1.496709 46 55 88
0.169806 0.173141 1.477891 70 76 111
0.175968 0.171247 1.461719 94 97 128
0.183306 0.170611 1.456298 65 70 101
0.193157 0.172270 1.470454 98 99 120
0.209171 0.179072 1.528517 34 34 40
-0.320737 0.183529 1.496467 50 61 81
-0.309590 0.181805 1.482409 55 69 87
-0.301927 0.182089 1.484730 44 57 79
-0.296832 0.183980 1.500150 37 49 73
-0.293154 0.186883 1.523821 31 46 72
-0.290690 0.190753 1.555376 36 60 96
-0.220237 0.188886 1.540149 0 0 0
-0.208825 0.186246 1.518623 57 63 98
-0.199539 0.185360 1.511398 60 69 103
-0.189667 0.183830 1.498926 73 80 113
-0.180559 0.182935 1.491630 68 75 108
-0.172084 0.182627 1.489112 70 78 108
-0.163677 0.182364 1.486970 74 80 109
-0.155137 0.181917 1.483324 68 72 101
-0.146910 0.181809 1.482443 65 71 100
-0.138569 0.181538 1.480233 70 74 103
-0.130121 0.181084 1.476537 54 58 86
-0.121649 0.180535 1.472056 52 59 79
-0.113525 0.180461 1.471457 50 54 78
-0.105197 0.180027 1.467911 44 48 72
-0.096884 0.179548 1.464012 44 48 76
-0.088630 0.179102 1.460376 39 46 73
-0.080632 0.179134 1.460635 41 46 71
-0.072497 0.178838 1.458222 41 46 71
-0.064498 0.178844 1.458269 42 46 74
-0.056476 0.178780 1.457748 43 47 76
-0.048525 0.178957 1.459193 35 41 70
-0.040599 0.179313 1.462095 35 42 69
-0.032551 0.179173 1.460951 43 47 72
-0.024588 0.179568 1.464170 40 46 69
-0.016596 0.180018 1.467839 44 50 73
-0.008555 0.180313 1.470248 44 48 76
-0.000489 0.180473 1.471549 50 52 82
0.007597 0.180724 1.473598 57 56 88
0.015733 0.181305 1.478333 67 62 94
0.023862 0.181438 1.479419 67 64 96
0.032002 0.181564 1.480444 73 72 106
0.040149 0.181670 1.481311 68 70 105
0.048410 0.182170 1.485385 77 78 112
0.056889 0.183230 1.494030 87 86 118
0.065302 0.183833 1.498951 90 84 119
0.073737 0.184358 1.503232 89 84 116
0.082456 0.185417 1.511865 96 85 117
0.091571 0.187092 1.525524 118 112 131
0.102023 0.190987 1.557278 113 112 114
0.163511 0.183284 1.494472 49 55 90
0.169319 0.180731 1.473651 69 74 107
0.175271 0.178557 1.455930 97 102 133
0.182891 0.178197 1.452996 78 81 112
0.193061 0.180249 1.469722 90 90 114
0.208150 0.186544 1.521054 34 37 45
-0.318642 0.190488 1.486694 38 51 73
-0.308565 0.189310 1.477501 46 57 84
-0.301769 0.190136 1.483951 49 58 85
-0.297029 0.192340 1.501149 30 43 69
-0.292974 0.195125 1.522886 35 46 76
-0.218626 0.195894 1.528886 51 61 95
-0.208499 0.194274 1.516248 47 60 92
-0.198944 0.193076 1.506892 62 73 103
-0.189436 0.191821 1.497097 69 80 108
-0.180275 0.190819 1.489276 72 83 111
-0.171673 0.190342 1.485553 75 83 113
-0.163570 0.190398 1.485995 72 76 105
-0.154919 0.189789 1.481241 68 72 101
-0.146791 0.189789 1.481240 64 71 98
-0.138458 0.189509 1.479054 60 64 93
-0.129969 0.188966 1.474816 48 57 84
-0.121721 0.188724 1.472928 54 61 88
-0.113611 0.188678 1.472566 42 46 70
-0.105236 0.188151 1.468457 48 52 76
-0.096980 0.187767 1.465461 40 47 67
-0.088650 0.187157 1.460699 43 52 72
-0.080602 0.187081 1.460103 45 54 74
-0.072544 0.186961 1.459168 39 45 68
-0.064449 0.186705 1.457169 45 48 76
-0.056454 0.186706 1.457175 40 43 71
-0.048566 0.187122 1.460422 40 45 70
-0.040614 0.187406 1.462645 35 45 69
-0.032616 0.187568 1.463907 31 42 62
-0.024583 0.187560 1.463841 34 46 64
-0.016598 0.188102 1.468077 40 50 68
-0.008544 0.188132 1.468310 49 54 79
-0.000488 0.188253 1.469252 50 52 83
0.007593 0.188728 1.472961 50 50 80
0.015716 0.189213 1.476748 62 62 92
0.023866 0.189587 1.479661 62 64 94
0.031962 0.189449 1.478588 63 70 103
0.040078 0.189464 1.478706 81 73 113
0.048354 0.190102 1.483682 71 69 105
0.056652 0.190629 1.487798 83 75 115
0.065211 0.191791 1.496868 86 77 117
0.073715 0.192551 1.502794 82 77 116
0.082227 0.193176 1.507675 95 92 124
0.091134 0.194529 1.518234 108 100 131
0.100625 0.196799 1.535951 120 113 126
0.163309 0.191248 1.492627 0 0 0
0.168568 0.187980 1.467122 70 77 110
0.174987 0.186243 1.453567 97 103 138
0.182632 0.185907 1.450941 82 87 120
0.192357 0.187627 1.464366 84 85 111
0.207544 0.194323 1.516629 31 37 44
-0.336311 0.204427 1.529963 0 0 0
-0.317603 0.197997 1.481844 49 60 87
-0.308100 0.197120 1.475276 54 62 92
-0.300989 0.197766 1.480114 54 62 91
-0.297076 0.200609 1.501386 34 42 71
-0.293864 0.204100 1.527514 40 51 81
-0.217930 0.203632 1.524016 49 67 96
-0.208368 0.202467 1.515298 60 74 103
-0.198479 0.200874 1.503370 69 80 108
-0.188688 0.199245 1.491183 70 81 109
-0.180033 0.198723 1.487277 74 85 113
-0.171573 0.198378 1.484690 74 82 111
-0.163105 0.197988 1.481774 68 74 103
-0.154787 0.197749 1.479985 72 76 105
-0.146568 0.197617 1.478995 59 68 95
-0.138473 0.197646 1.479213 62 71 98
-0.130149 0.197331 1.476855 46 55 82
-0.121800 0.196934 1.473886 44 52 81
-0.113519 0.196599 1.471376 55 62 89
-0.105139 0.196027 1.467101 53 58 83
-0.096837 0.195519 1.463299 43 50 70
-0.088790 0.195480 1.463007 40 50 67
-0.080676 0.195270 1.461433 42 52 69
-0.072495 0.194837 1.458190 42 49 69
-0.064439 0.194672 1.456955 36 38 62
-0.056410 0.194552 1.456057 40 42 66
-0.048531 0.194993 1.459361 30 37 56
-0.040610 0.195414 1.462513 36 45 65
-0.032621 0.195630 1.464124 38 45 65
-0.024589 0.195645 1.464237 40 50 68
-0.016595 0.196121 1.467802 29 41 59
-0.008551 0.196349 1.469508 29 41 59
-0.000488 0.196457 1.470314 38 45 72
0.007590 0.196729 1.472350 51 55 84
0.015694 0.197047 1.474734 55 57 87
0.023776 0.196962 1.474094 63 66 94
0.031904 0.197205 1.475910 65 67 97
0.040078 0.197578 1.478707 65 67 98
0.048266 0.197883 1.480986 67 69 104
0.056607 0.198635 1.486612 83 81 117
0.065069 0.199568 1.493599 83 79 115
0.073578 0.200423 1.500000 86 82 118
0.082158 0.201278 1.506399 85 82 114
0.090895 0.202328 1.514258 101 96 125
0.100517 0.205005 1.534292 131 124 139
0.163573 0.199761 1.495040 0 0 0
0.168107 0.195494 1.463110 84 88 123
0.174435 0.193606 1.448979 97 100 138
0.182520 0.193749 1.450048 78 80 111
0.191548 0.194839 1.458207 88 87 113
0.207998 0.203088 1.519944 34 38 43
-0.333355 0.210952 1.516517 0 0 0
-0.317379 0.205983 1.480802 57 63 92
-0.307230 0.204635 1.471110 58 66 95
-0.299457 0.204840 1.472581 60 68 97
-0.295257 0.207568 1.492190 44 51 76
-0.293580 0.212276 1.526035 39 51 79
-0.229881 0.215357 1.548188 0 0 0
-0.217245 0.211329 1.519232 54 68 97
-0.207738 0.210144 1.510712 66 80 109
-0.197969 0.208586 1.499511 71 79 108
-0.188448 0.207164 1.489289 75 83 112
-0.179718 0.206523 1.484682 75 83 112
-0.171089 0.205943 1.480507 61 72 100
-0.162764 0.205688 1.478679 73 77 105
-0.154755 0.205827 1.479674 58 64 93
-0.146515 0.205658 1.478461 58 64 93
-0.138224 0.205392 1.476548 53 63 87
-0.130080 0.205326 1.476075 46 57 77
-0.121782 0.204992 1.473673 44 55 75
-0.113544 0.204717 1.471698 44 51 71
-0.105207 0.204209 1.468044 46 52 75
-0.096904 0.203688 1.464301 46 50 74
-0.088639 0.203162 1.460520 37 42 63
-0.080501 0.202848 1.458261 43 49 68
-0.072473 0.202774 1.457732 42 49 68
-0.064377 0.202469 1.455539 38 47 67
-0.056465 0.202737 1.457463 38 46 69
-0.048552 0.203092 1.460013 41 46 67
-0.040585 0.203314 1.461608 45 46 66
-0.032582 0.203419 1.462364 32 33 53
-0.024605 0.203812 1.465193 26 31 52
-0.016616 0.204436 1.469678 29 34 55
-0.008560 0.204628 1.471060 31 35 54
-0.000487 0.204164 1.467720 38 39 60
0.007576 0.204421 1.469572 50 51 77
0.015687 0.205046 1.474064 50 52 82
0.023795 0.205215 1.475277 66 70 98
0.031848 0.204940 1.473299 63 68 93
0.040010 0.205339 1.476172 59 63 91
0.048218 0.205804 1.479509 67 69 100
0.056567 0.206647 1.485571 70 69 108
0.064942 0.207360 1.490694 79 78 117
0.073376 0.208080 1.495875 86 82 117
0.082009 0.209164 1.503670 94 89 121
0.090783 0.210378 1.512394 100 95 122
0.099826 0.211957 1.523748 135 127 144
0.162736 0.206900 1.487390 0 0 0
0.167284 0.202526 1.455945 72 69 108
0.173693 0.200700 1.442816 69 68 107
0.181831 0.200944 1.444573 76 77 111
0.191081 0.202346 1.454653 86 87 113
0.205528 0.208918 1.501897 34 38 43
-0.329068 0.216452 1.497011 49 50 84
-0.315919 0.213124 1.473989 67 69 99
-0.305893 0.211782 1.464707 69 71 101
-0.298148 0.211990 1.466145 76 78 108
-0.293270 0.214304 1.482150 53 59 88
-0.291394 0.219006 1.514673 37 57 88
-0.227213 0.221254 1.530219 56 66 96
-0.216314 0.218724 1.512719 69 75 104
-0.206630 0.217269 1.502657 72 76 105
-0.197092 0.215853 1.492865 78 84 113
-0.188164 0.215012 1.487046 76 84 113
-0.179505 0.214415 1.482919 71 80 107
-0.170992 0.213944 1.479661 80 78 107
-0.162851 0.213916 1.479469 66 70 98
-0.154804 0.214014 1.480146 61 65 90
-0.146298 0.213453 1.476268 57 64 89
-0.138149 0.213378 1.475748 48 57 84
-0.130093 0.213447 1.476223 48 59 79
-0.121722 0.212973 1.472944 42 52 70
-0.113349 0.212427 1.469169 34 44 62
-0.105028 0.211904 1.465556 35 45 63
-0.096758 0.211406 1.462109 32 42 60
-0.088531 0.210919 1.458740 32 38 57
-0.080533 0.210934 1.458844 41 47 66
-0.072404 0.210574 1.456355 26 38 56
-0.064446 0.210682 1.457098 33 44 64
-0.056410 0.210529 1.456040 32 42 60
-0.048412 0.210493 1.455793 28 41 57
-0.040526 0.211024 1.459467 28 35 52
-0.032591 0.211500 1.462761 30 33 48
-0.024591 0.211731 1.464358 26 33 50
-0.016582 0.212056 1.466602 25 33 50
-0.008555 0.212566 1.470134 28 32 50
-0.000489 0.212986 1.473039 44 41 66
0.007589 0.212862 1.472178 52 49 75
0.015673 0.212946 1.472760 60 61 89
0.023787 0.213238 1.474781 58 60 90
0.031847 0.213020 1.473271 60 64 92
0.039981 0.213285 1.475104 56 58 88
0.048152 0.213627 1.477473 75 74 108
0.056374 0.214065 1.480501 78 77 116
0.064756 0.214920 1.486416 85 84 123
0.073156 0.215640 1.491390 91 90 124
0.081876 0.217063 1.501233 105 100 131
0.090703 0.218483 1.511053 109 104 133
0.099786 0.220230 1.523136 127 120 141
0.110444 0.224915 1.555537 97 92 101
0.161499 0.213427 1.476089 85 82 114
0.166508 0.209537 1.449186 73 70 109
0.173043 0.207837 1.437423 79 79 115
0.181075 0.208003 1.438571 93 95 130
0.189833 0.208953 1.445147 90 90 120
0.201048 0.212425 1.469156 65 68 82
-0.327755 0.223771 1.491042 53 60 93
-0.314786 0.220419 1.468704 66 68 102
-0.305584 0.219597 1.463228 59 59 95
-0.297455 0.219523 1.462736 69 70 104
-0.291403 0.221020 1.472714 58 63 94
-0.287469 0.224256 1.494273 43 55 91
-0.226136 0.228562 1.522968 60 70 100
-0.215356 0.226019 1.506022 61 69 99
-0.205872 0.224686 1.497143 75 78 109
-0.196446 0.223310 1.487973 83 80 112
-0.187569 0.222465 1.482339 75 78 109
-0.179227 0.222207 1.480619 79 81 111
-0.170773 0.221779 1.477771 77 78 106
-0.162653 0.221763 1.477664 70 73 101
-0.154291 0.221400 1.475241 60 69 96
-0.146350 0.221632 1.476792 53 63 87
-0.138120 0.221429 1.475437 48 60 84
-0.129970 0.221338 1.474830 48 60 84
-0.121572 0.220782 1.471126 43 54 74
-0.113413 0.220613 1.469998 36 48 66
-0.105058 0.220008 1.465969 42 55 71
-0.096719 0.219339 1.461514 32 45 59
-0.088468 0.218767 1.457701 29 36 51
-0.080392 0.218557 1.456301 30 37 54
-0.072452 0.218710 1.457322 21 29 46
-0.064376 0.218441 1.455529 23 31 48
-0.056418 0.218552 1.456264 27 35 52
-0.048475 0.218766 1.457696 24 37 51
-0.040510 0.218949 1.458913 23 32 45
-0.032562 0.219329 1.461445 18 24 35
-0.024552 0.219411 1.461991 15 25 35
-0.016589 0.220197 1.467229 24 33 47
-0.008558 0.220714 1.470674 35 39 57
-0.000488 0.220828 1.471432 35 35 59
0.007592 0.221011 1.472654 38 39 67
0.015663 0.220886 1.471820 49 50 76
0.023755 0.221032 1.472794 57 59 89
0.031816 0.220888 1.471832 58 60 90
0.039896 0.220909 1.471971 63 65 95
0.048050 0.221265 1.474343 77 79 113
0.056239 0.221658 1.476962 78 78 118
0.064525 0.222282 1.481122 82 84 119
0.072974 0.223268 1.487688 90 92 122
0.081703 0.224823 1.498055 101 99 129
0.090363 0.225926 1.505398 116 111 138
0.099487 0.227903 1.518574 127 117 140
0.109801 0.232092 1.546486 126 116 132
0.159999 0.219469 1.462377 85 87 117
0.165509 0.216185 1.440494 82 81 115
0.172569 0.215133 1.433483 95 94 133
0.181094 0.215918 1.438716 79 76 115
0.189445 0.216440 1.442193 79 74 106
0.200124 0.219473 1.462406 99 97 116
-0.326292 0.230917 1.484385 0 0 0
-0.313803 0.227764 1.464115 67 74 107
-0.304777 0.227025 1.459366 67 69 103
-0.296782 0.227034 1.459427 69 68 100
-0.290021 0.228015 1.465729 67 68 102
-0.284939 0.230409 1.481119 58 61 99
-0.224807 0.235526 1.514013 61 63 93
-0.214567 0.233424 1.500501 76 79 110
-0.205177 0.232115 1.492088 74 79 110
-0.195978 0.230923 1.484427 78 83 116
-0.187392 0.230382 1.480944 69 74 107
-0.179013 0.230057 1.478856 73 78 111
-0.170448 0.229450 1.474956 69 73 102
-0.162304 0.229378 1.474493 66 70 99
-0.154194 0.229350 1.474313 67 71 99
-0.146256 0.229588 1.475843 55 62 87
-0.138003 0.229331 1.474188 41 51 75
-0.130059 0.229587 1.475833 41 52 72
-0.121677 0.229052 1.472394 40 52 70
-0.113385 0.228623 1.469639 33 48 64
-0.105093 0.228129 1.466464 33 46 62
-0.096660 0.227220 1.460621 26 39 55
-0.088473 0.226778 1.457781 31 41 58
-0.080413 0.226606 1.456677 28 35 50
-0.072442 0.226674 1.457113 23 32 45
-0.064419 0.226578 1.456491 21 29 42
-0.056482 0.226798 1.457909 23 28 43
-0.048562 0.227173 1.460318 21 29 42
-0.040550 0.227176 1.460339 21 32 40
-0.032576 0.227448 1.462085 19 32 40
-0.024634 0.228199 1.466914 18 30 42
-0.016593 0.228302 1.467573 23 36 50
-0.008546 0.228452 1.468539 33 46 62
-0.000488 0.228598 1.469482 42 49 68
0.007592 0.229101 1.472713 39 41 65
0.015666 0.229001 1.472067 50 48 77
0.023734 0.228908 1.471470 52 55 83
0.031803 0.228872 1.471242 60 64 93
0.039885 0.228924 1.471572 66 70 99
0.047951 0.228885 1.471324 72 74 104
0.056063 0.229043 1.472338 96 89 124
0.064332 0.229719 1.476685 91 93 127
0.072737 0.230680 1.482860 100 101 135
0.081349 0.232034 1.491569 98 96 126
0.090012 0.233276 1.499551 115 111 140
0.099179 0.235505 1.513881 122 118 143
0.109461 0.239832 1.541693 135 129 146
0.156530 0.234312 1.506207 0 0 0
0.158439 0.225274 1.448115 78 74 116
0.164716 0.223016 1.433597 70 66 102
0.172426 0.222814 1.432296 68 62 103
0.181072 0.223786 1.438546 88 81 118
0.190231 0.225284 1.448178 82 75 108
0.199826 0.227159 1.460226 65 62 78
-0.328720 0.240841 1.495430 0 0 0
-0.313917 0.235883 1.464648 71 78 111
-0.304706 0.234977 1.459023 71 73 108
-0.296519 0.234834 1.458136 67 69 103
-0.289272 0.235448 1.461947 71 75 110
