# .PCD v0.7 - Point Cloud Data file format
VERSION 0.7
FIELDS x y z
SIZE 4 4 4
TYPE F F F
COUNT 1 1 1
WIDTH 1680
HEIGHT 1
VIEWPOINT 0 0 0 1 0 0 0
POINTS 1680
DATA ascii
-0.313695 -0.353814 2.037366
-0.301247 -0.352330 2.028819
-0.289514 -0.351600 2.024615
-0.278670 -0.351935 2.026545
-0.267927 -0.352431 2.029399
-0.255315 -0.350405 2.017732
-0.242738 -0.348246 2.005300
-0.230271 -0.346046 1.992634
-0.218642 -0.344948 1.986312
-0.207077 -0.343844 1.979952
-0.195913 -0.343318 1.976922
-0.185091 -0.343365 1.977193
-0.174054 -0.342996 1.975069
-0.163403 -0.343387 1.977322
-0.152761 -0.343854 1.980013
-0.141505 -0.342907 1.974555
-0.130557 -0.342607 1.972830
-0.119664 -0.342413 1.971716
-0.108937 -0.342704 1.973387
-0.098297 -0.343363 1.977181
-0.087702 -0.344359 1.982918
-0.076787 -0.344203 1.982018
-0.065820 -0.343727 1.979278
-0.054907 -0.343396 1.977371
-0.044071 -0.343505 1.978001
-0.033153 -0.342840 1.974172
-0.022288 -0.342339 1.971288
-0.011485 -0.342751 1.973658
-0.000655 -0.342872 1.974356
0.010180 -0.342948 1.974792
0.021049 -0.343488 1.977902
0.031867 -0.343103 1.975686
0.042771 -0.343617 1.978648
0.053760 -0.344458 1.983487
0.064756 -0.345059 1.986952
0.075920 -0.346252 1.993817
0.087227 -0.347714 2.002240
0.098841 -0.349933 2.015018
0.110711 -0.352524 2.029933
0.121622 -0.351867 2.026153
0.132509 -0.351254 2.022624
0.143714 -0.351516 2.024128
0.155148 -0.352260 2.028413
0.166677 -0.353104 2.033273
0.179278 -0.355970 2.049781
0.193775 -0.362044 2.084752
-0.344191 -0.350932 2.086699
-0.327435 -0.345336 2.053425
-0.313044 -0.341923 2.033132
-0.301387 -0.341356 2.029762
-0.289765 -0.340787 2.026374
-0.279050 -0.341281 2.029311
-0.268839 -0.342458 2.036309
-0.256231 -0.340551 2.024975
-0.243289 -0.338007 2.009848
-0.231236 -0.336516 2.000979
-0.219401 -0.335210 1.993214
-0.207725 -0.334021 1.986144
-0.196431 -0.333350 1.982154
-0.185547 -0.333335 1.982064
-0.174289 -0.332607 1.977736
-0.163635 -0.333008 1.980123
-0.153009 -0.333531 1.983233
-0.141898 -0.332994 1.980040
-0.130537 -0.331731 1.972528
-0.119558 -0.331301 1.969972
-0.108843 -0.331588 1.971678
-0.098338 -0.332651 1.977999
-0.087738 -0.333613 1.983720
-0.076702 -0.332960 1.979833
-0.065814 -0.332837 1.979105
-0.054936 -0.332724 1.978431
-0.044060 -0.332569 1.977511
-0.033154 -0.332022 1.974261
-0.022311 -0.331866 1.973329
-0.011499 -0.332342 1.976158
-0.000658 -0.333335 1.982068
0.010224 -0.333541 1.983288
0.021093 -0.333324 1.982001
0.031949 -0.333121 1.980790
0.042891 -0.333689 1.984173
0.053885 -0.334351 1.988108
0.064916 -0.334981 1.991854
0.076155 -0.336348 1.999979
0.087616 -0.338230 2.011171
0.099487 -0.341092 2.028188
0.111246 -0.343034 2.039738
0.121855 -0.341400 2.030023
0.132886 -0.341125 2.028387
0.143849 -0.340729 2.026031
0.154977 -0.340753 2.026175
0.166565 -0.341718 2.031914
0.178685 -0.343583 2.043001
0.191492 -0.346473 2.060184
-0.341960 -0.337281 2.073172
-0.326187 -0.332795 2.045598
-0.313089 -0.330815 2.033428
-0.301849 -0.330725 2.032873
-0.290434 -0.330428 2.031049
-0.279741 -0.330963 2.034337
-0.269702 -0.332348 2.042847
-0.257369 -0.330903 2.033967
-0.244226 -0.328238 2.017586
-0.232113 -0.326771 2.008570
-0.220333 -0.325650 2.001681
-0.208506 -0.324337 1.993610
-0.197235 -0.323793 1.990263
-0.186074 -0.323375 1.987697
-0.174974 -0.323019 1.985508
-0.163918 -0.322701 1.983551
-0.153032 -0.322696 1.983521
-0.141927 -0.322195 1.980442
-0.130611 -0.321089 1.973646
-0.119674 -0.320802 1.971880
-0.108984 -0.321186 1.974242
-0.098326 -0.321759 1.977762
-0.087738 -0.322728 1.983718
-0.076848 -0.322706 1.983584
-0.065905 -0.322423 1.981842
-0.054967 -0.322049 1.979542
-0.044051 -0.321651 1.977095
-0.033151 -0.321157 1.974062
-0.022292 -0.320759 1.971617
-0.011495 -0.321387 1.975474
-0.000658 -0.322568 1.982734
0.010232 -0.322904 1.984798
0.021142 -0.323204 1.986647
0.032052 -0.323292 1.987184
0.043014 -0.323732 1.989887
0.054099 -0.324725 1.995992
0.065169 -0.325316 1.999627
0.076525 -0.326954 2.009693
0.088110 -0.329038 2.022504
0.099981 -0.331602 2.038264
0.111737 -0.333309 2.048755
0.122322 -0.331528 2.037811
0.133214 -0.330809 2.033391
0.144123 -0.330240 2.029894
0.155210 -0.330131 2.029223
0.166606 -0.330650 2.032412
0.178435 -0.331908 2.040142
0.190203 -0.332912 2.046315
0.204189 -0.337469 2.074329
-0.357696 -0.329927 2.098754
-0.339001 -0.323086 2.055234
-0.325369 -0.320764 2.040465
-0.313069 -0.319637 2.033298
-0.301601 -0.319307 2.031200
-0.290998 -0.319904 2.034992
-0.280744 -0.320947 2.041631
-0.270458 -0.322038 2.048572
-0.259228 -0.322052 2.048662
-0.245652 -0.319020 2.029371
-0.233137 -0.317143 2.017429
-0.220968 -0.315573 2.007444
-0.209186 -0.314420 2.000112
-0.197629 -0.313497 1.994237
-0.186526 -0.313228 1.992528
-0.175349 -0.312792 1.989756
-0.164336 -0.312612 1.988610
-0.153072 -0.311895 1.984048
-0.141796 -0.311040 1.978608
-0.130582 -0.310191 1.973211
-0.119592 -0.309772 1.970540
-0.108993 -0.310378 1.974396
-0.098555 -0.311630 1.982363
-0.087884 -0.312364 1.987031
-0.076898 -0.312028 1.984896
-0.065978 -0.311891 1.984025
-0.055062 -0.311723 1.982952
-0.044101 -0.311162 1.979383
-0.033149 -0.310305 1.973935
-0.022335 -0.310552 1.975505
-0.011527 -0.311411 1.980969
-0.000658 -0.311745 1.983097
0.010236 -0.312139 1.985597
0.021183 -0.312907 1.990484
0.032150 -0.313342 1.993252
0.043165 -0.313905 1.996836
0.054270 -0.314769 2.002332
0.065471 -0.315798 2.008873
0.076735 -0.316795 2.015221
0.088356 -0.318828 2.028152
0.100445 -0.321905 2.047723
0.112234 -0.323498 2.057855
0.122813 -0.321631 2.045984
0.133348 -0.319973 2.035434
0.144178 -0.319222 2.030658
0.155203 -0.318982 2.029131
0.166502 -0.319298 2.031141
0.177917 -0.319783 2.034225
0.189733 -0.320890 2.041265
0.202347 -0.323147 2.055624
-0.352692 -0.313956 2.069393
-0.338424 -0.311277 2.051735
-0.325435 -0.309631 2.040882
-0.313250 -0.308659 2.034473
-0.301805 -0.308371 2.032574
-0.291254 -0.309009 2.036786
-0.281244 -0.310296 2.045265
-0.270887 -0.311291 2.051826
-0.260257 -0.312044 2.056790
-0.246320 -0.308721 2.034884
-0.233750 -0.306878 2.022734
-0.221484 -0.305270 2.012135
-0.209955 -0.304562 2.007468
-0.198280 -0.303550 2.000803
-0.186823 -0.302775 1.995694
-0.175348 -0.301873 1.989751
-0.164156 -0.301370 1.986429
-0.152969 -0.300805 1.982711
-0.141734 -0.300051 1.977741
-0.130695 -0.299623 1.974917
-0.119789 -0.299451 1.973783
-0.109138 -0.299943 1.977023
-0.098732 -0.301292 1.985920
-0.088085 -0.302149 1.991565
-0.077127 -0.302032 1.990792
-0.066125 -0.301675 1.988445
-0.055133 -0.301231 1.985518
-0.044165 -0.300734 1.982239
-0.033206 -0.299990 1.977336
-0.022328 -0.299607 1.974811
-0.011531 -0.300631 1.981564
-0.000659 -0.301383 1.986516
0.010262 -0.302000 1.990585
0.021230 -0.302651 1.994874
0.032268 -0.303514 2.000563
0.043307 -0.303946 2.003409
0.054426 -0.304651 2.008059
0.065649 -0.305605 2.014344
0.077062 -0.307042 2.023817
0.088871 -0.309491 2.039963
0.101143 -0.312827 2.061952
0.112849 -0.313919 2.069146
0.123258 -0.311531 2.053408
0.133922 -0.310134 2.044196
0.144663 -0.309117 2.037494
0.155364 -0.308167 2.031232
0.166505 -0.308158 2.031173
0.177958 -0.308691 2.034690
0.189777 -0.309760 2.041731
0.201947 -0.311250 2.051553
0.217117 -0.316962 2.089206
-0.368024 -0.305908 2.092002
-0.350615 -0.300819 2.057207
-0.338067 -0.299703 2.049573
-0.325315 -0.298322 2.040128
-0.313702 -0.297924 2.037405
-0.302482 -0.297884 2.037135
-0.292058 -0.298656 2.042410
-0.282036 -0.299915 2.051023
-0.272699 -0.302039 2.065550
-0.262177 -0.302977 2.071962
-0.247916 -0.299483 2.048070
-0.234681 -0.296956 2.030789
-0.222169 -0.295139 2.018359
-0.210471 -0.294268 2.012401
-0.198583 -0.293019 2.003862
-0.187047 -0.292175 1.998087
-0.175937 -0.291932 1.996432
-0.164502 -0.291082 1.990613
-0.153039 -0.290058 1.983616
-0.141774 -0.289282 1.978304
-0.130556 -0.288480 1.972824
-0.119932 -0.288965 1.976140
-0.109271 -0.289448 1.979441
-0.098725 -0.290375 1.985777
-0.088077 -0.291195 1.991386
-0.077225 -0.291478 1.993327
-0.066243 -0.291285 1.992004
-0.055231 -0.290855 1.989061
-0.044308 -0.290796 1.988661
-0.033290 -0.289870 1.982330
-0.022361 -0.289197 1.977722
-0.011520 -0.289476 1.979632
-0.000659 -0.290404 1.985976
0.010284 -0.291705 1.994878
0.021298 -0.292645 2.001302
0.032331 -0.293106 2.004455
0.043415 -0.293687 2.008431
0.054629 -0.294732 2.015577
0.065877 -0.295574 2.021336
0.077353 -0.297052 2.031445
0.089197 -0.299391 2.047441
0.101679 -0.303113 2.072890
0.123950 -0.301949 2.064933
0.134528 -0.300268 2.053436
0.145039 -0.298711 2.042786
0.155659 -0.297584 2.035083
0.166447 -0.296910 2.030473
0.177738 -0.297160 2.032178
0.189150 -0.297571 2.034992
0.201159 -0.298822 2.043547
0.214665 -0.302049 2.065617
-0.364461 -0.291578 2.071748
-0.349972 -0.289001 2.053438
-0.337554 -0.288019 2.046461
-0.325502 -0.287293 2.041301
-0.314402 -0.287385 2.041956
-0.303458 -0.287632 2.043710
-0.293028 -0.288404 2.049195
-0.283201 -0.289854 2.059498
-0.274989 -0.293147 2.082895
-0.249871 -0.290519 2.064222
-0.236069 -0.287504 2.042804
-0.222980 -0.285100 2.025722
-0.211025 -0.283970 2.017692
-0.199003 -0.282621 2.008107
-0.187514 -0.281913 2.003079
-0.176084 -0.281212 1.998098
-0.164909 -0.280852 1.995541
-0.153244 -0.279548 1.986275
-0.141968 -0.278807 1.981005
-0.130816 -0.278209 1.976757
-0.120208 -0.278761 1.980678
-0.109473 -0.279100 1.983089
-0.098929 -0.280056 1.989884
-0.088275 -0.280898 1.995866
-0.077255 -0.280650 1.994100
-0.066292 -0.280560 1.993466
-0.055347 -0.280528 1.993237
-0.044340 -0.280087 1.990105
-0.033322 -0.279258 1.984215
-0.022402 -0.278858 1.981370
-0.011541 -0.279134 1.983328
-0.000660 -0.279806 1.988103
0.010290 -0.280914 1.995978
0.021303 -0.281727 2.001755
0.032389 -0.282613 2.008050
0.043552 -0.283561 2.014783
0.054799 -0.284553 2.021838
0.066247 -0.286083 2.032709
0.077997 -0.288287 2.048368
0.089908 -0.290455 2.063771
0.104503 -0.299841 2.130460
0.135994 -0.292151 2.075819
0.145714 -0.288841 2.052301
0.156122 -0.287271 2.041147
0.166829 -0.286424 2.035131
0.177829 -0.286156 2.033221
0.189319 -0.286660 2.036808
0.200740 -0.287010 2.039294
0.212919 -0.288350 2.048813
0.227350 -0.292451 2.077955
-0.363317 -0.279330 2.065246
-0.350259 -0.277961 2.055122
-0.337658 -0.276875 2.047089
-0.325795 -0.276340 2.043138
-0.314405 -0.276183 2.041974
-0.303652 -0.276594 2.045013
-0.294276 -0.278340 2.057921
-0.285435 -0.280750 2.075741
-0.252761 -0.282421 2.088097
-0.237232 -0.277656 2.052864
-0.224048 -0.275297 2.035426
-0.211648 -0.273705 2.023656
-0.199865 -0.272779 2.016804
-0.188041 -0.271683 2.008706
-0.176476 -0.270850 2.002546
-0.165042 -0.270121 1.997158
-0.153697 -0.269443 1.992144
-0.142306 -0.268576 1.985730
-0.131227 -0.268202 1.982967
-0.120293 -0.268083 1.982085
-0.109601 -0.268534 1.985422
-0.099231 -0.269959 1.995956
-0.088417 -0.270380 1.999073
-0.077412 -0.270256 1.998151
-0.066413 -0.270116 1.997118
-0.055432 -0.270004 1.996289
-0.044404 -0.269555 1.992973
-0.033393 -0.268948 1.988482
-0.022437 -0.268411 1.984510
-0.011557 -0.268614 1.986010
-0.000661 -0.269310 1.991157
0.010309 -0.270474 1.999767
0.021333 -0.271125 2.004576
0.032487 -0.272420 2.014151
0.043720 -0.273552 2.022520
0.055065 -0.274785 2.031638
0.066483 -0.275906 2.039927
0.078320 -0.278194 2.056840
0.090829 -0.281989 2.084901
0.147113 -0.280244 2.072002
0.157173 -0.277929 2.054887
0.167593 -0.276517 2.044443
0.178150 -0.275495 2.036884
0.189344 -0.275520 2.037072
0.200538 -0.275543 2.037243
0.212706 -0.276831 2.046763
0.225685 -0.278992 2.062743
0.239412 -0.281827 2.083702
-0.378748 -0.270930 2.087839
-0.361918 -0.266966 2.057291
-0.349120 -0.265817 2.048438
-0.337450 -0.265478 2.045827
-0.326166 -0.265431 2.045465
-0.315477 -0.265882 2.048935
-0.305343 -0.266851 2.056406
-0.295118 -0.267812 2.063810
-0.288351 -0.272112 2.096950
-0.239506 -0.268946 2.072547
-0.225560 -0.265911 2.049163
-0.212600 -0.263782 2.032755
-0.200781 -0.262911 2.026042
-0.188765 -0.261665 2.016440
-0.177316 -0.261098 2.012074
-0.165166 -0.259357 1.998654
-0.153702 -0.258521 1.992211
-0.142554 -0.258129 1.989193
-0.131204 -0.257275 1.982607
-0.120356 -0.257341 1.983122
-0.109735 -0.257955 1.987848
-0.099349 -0.259315 1.998335
-0.088558 -0.259825 2.002265
-0.077593 -0.259899 2.002833
-0.066599 -0.259880 2.002686
-0.055575 -0.259720 2.001454
-0.044533 -0.259370 1.998754
-0.033459 -0.258542 1.992376
-0.022502 -0.258259 1.990196
-0.011585 -0.258346 1.990865
-0.000662 -0.258717 1.993721
0.010314 -0.259619 2.000675
0.021395 -0.260884 2.010421
0.032569 -0.262027 2.019233
0.043806 -0.262972 2.026510
0.055216 -0.264363 2.037230
0.066832 -0.266105 2.050658
0.078893 -0.268859 2.071877
0.092092 -0.274312 2.113900
0.149313 -0.272895 2.102980
0.158598 -0.269071 2.073515
0.168496 -0.266730 2.055470
0.178802 -0.265286 2.044345
0.189476 -0.264527 2.038496
0.200586 -0.264427 2.037727
0.212814 -0.265734 2.047798
0.224623 -0.266413 2.053030
0.238210 -0.269036 2.073240
-0.376690 -0.258064 2.076498
-0.361465 -0.255357 2.054717
-0.348756 -0.254312 2.046300
-0.337673 -0.254421 2.047181
-0.326969 -0.254833 2.050500
-0.316844 -0.255743 2.057817
-0.306965 -0.256925 2.067331
-0.298185 -0.259153 2.085259
-0.227271 -0.256599 2.064704
-0.213345 -0.253513 2.039879
-0.201054 -0.252137 2.028803
-0.189484 -0.251555 2.024123
-0.177668 -0.250555 2.016072
-0.165632 -0.249091 2.004291
-0.153871 -0.247861 1.994394
-0.142838 -0.247706 1.993153
-0.131655 -0.247243 1.989427
-0.120638 -0.247036 1.987761
-0.109927 -0.247479 1.991324
-0.099416 -0.248518 1.999685
-0.088692 -0.249215 2.005289
-0.077771 -0.249479 2.007415
-0.066737 -0.249410 2.006861
-0.055640 -0.249028 2.003789
-0.044589 -0.248714 2.001259
-0.033503 -0.247941 1.995038
-0.022517 -0.247510 1.991569
-0.011602 -0.247780 1.993744
-0.000663 -0.248061 1.996008
0.010322 -0.248847 2.002327
0.021461 -0.250624 2.016628
0.032676 -0.251772 2.025865
0.043935 -0.252592 2.032468
0.055442 -0.254220 2.045564
0.067092 -0.255842 2.058616
0.079409 -0.259174 2.085429
0.160530 -0.260832 2.098769
0.170160 -0.257973 2.075764
0.179808 -0.255498 2.055851
0.190570 -0.254804 2.050266
0.201479 -0.254374 2.046804
0.212999 -0.254719 2.049577
0.224764 -0.255309 2.054326
0.237582 -0.256980 2.067775
-0.393641 -0.250202 2.106227
-0.374647 -0.245332 2.065233
-0.361671 -0.244222 2.055887
-0.349968 -0.243928 2.053414
-0.338063 -0.243469 2.049544
-0.327745 -0.244160 2.055366
-0.318049 -0.245381 2.065640
-0.309806 -0.247854 2.086462
-0.229193 -0.247344 2.082170
-0.214546 -0.243685 2.051362
-0.201822 -0.241925 2.036553
-0.190231 -0.241397 2.032103
-0.177542 -0.239322 2.014641
-0.165946 -0.238544 2.008092
-0.154150 -0.237348 1.998021
-0.143074 -0.237161 1.996446
-0.131862 -0.236698 1.992551
-0.120999 -0.236837 1.993715
-0.110110 -0.236946 1.994639
-0.099509 -0.237768 2.001559
-0.088912 -0.238804 2.010276
-0.077854 -0.238718 2.009557
-0.066770 -0.238516 2.007855
-0.055803 -0.238727 2.009633
-0.044647 -0.238043 2.003868
-0.033570 -0.237462 1.998983
-0.022582 -0.237263 1.997302
-0.011616 -0.237122 1.996119
-0.000664 -0.237698 2.000967
0.010364 -0.238811 2.010338
0.021503 -0.240025 2.020552
0.032790 -0.241498 2.032955
0.044081 -0.242242 2.039219
0.055695 -0.244105 2.054902
0.067664 -0.246633 2.076181
0.080622 -0.251519 2.117310
0.161647 -0.251052 2.113380
0.171781 -0.248932 2.095534
0.181351 -0.246314 2.073493
0.191637 -0.244918 2.061744
0.202290 -0.244121 2.055037
0.213452 -0.243991 2.053939
0.224750 -0.244021 2.054195
0.236887 -0.244916 2.061730
0.250168 -0.246858 2.078078
-0.390407 -0.236685 2.088926
-0.374296 -0.233781 2.063297
-0.361353 -0.232737 2.054082
-0.350341 -0.232909 2.055599
-0.338869 -0.232776 2.054432
-0.328685 -0.233550 2.061260
-0.319785 -0.235324 2.076918
-0.314207 -0.239763 2.116098
-0.232123 -0.238935 2.108788
-0.215934 -0.233932 2.064634
-0.203025 -0.232126 2.048689
-0.190758 -0.230885 2.037735
-0.178547 -0.229561 2.026050
-0.166527 -0.228322 2.015119
-0.154813 -0.227357 2.006605
-0.143218 -0.226434 1.998457
-0.132302 -0.226519 1.999207
-0.121238 -0.226343 1.997650
-0.110378 -0.226550 1.999484
-0.099663 -0.227136 2.004654
-0.089044 -0.228112 2.013262
-0.078093 -0.228391 2.015725
-0.066968 -0.228170 2.013780
-0.055869 -0.227973 2.012039
-0.044721 -0.227424 2.007190
-0.033615 -0.226802 2.001702
-0.022579 -0.226278 1.997076
-0.011645 -0.226733 2.001094
-0.000666 -0.227361 2.006639
0.010398 -0.228536 2.017004
0.021594 -0.229905 2.029094
0.032901 -0.231121 2.039818
0.044291 -0.232156 2.048955
0.055960 -0.233937 2.064674
0.068220 -0.237174 2.093244
0.083335 -0.247972 2.188547
0.172486 -0.238407 2.104131
0.182874 -0.236909 2.090907
0.192798 -0.235020 2.074232
0.202986 -0.233647 2.062116
0.213292 -0.232546 2.052401
0.224827 -0.232829 2.054901
0.236412 -0.233135 2.057597
0.249802 -0.235111 2.075036
-0.388169 -0.223932 2.076953
-0.373992 -0.222279 2.061621
-0.361336 -0.221455 2.053986
-0.350326 -0.221620 2.055511
-0.339732 -0.222067 2.059663
-0.330255 -0.223301 2.071108
-0.322577 -0.225883 2.095051
-0.317754 -0.230728 2.139986
-0.217565 -0.224284 2.080224
-0.204031 -0.221979 2.058842
-0.191059 -0.220050 2.040948
-0.179081 -0.219097 2.032112
-0.167127 -0.218047 2.022377
-0.155236 -0.216938 2.012088
-0.143888 -0.216476 2.007800
-0.132578 -0.215999 2.003378
-0.121631 -0.216080 2.004133
-0.110724 -0.216256 2.005760
-0.099850 -0.216541 2.008401
-0.089036 -0.217044 2.013075
-0.078170 -0.217544 2.017708
-0.067143 -0.217691 2.019070
-0.055933 -0.217181 2.014343
-0.044768 -0.216637 2.009299
-0.033677 -0.216215 2.005384
-0.022658 -0.216069 2.004030
-0.011678 -0.216379 2.006905
-0.000669 -0.217162 2.014165
0.010417 -0.217861 2.020650
0.021647 -0.219310 2.034092
0.032977 -0.220436 2.044532
0.044583 -0.222369 2.062462
0.056232 -0.223688 2.074695
0.068510 -0.226646 2.102134
0.183778 -0.226550 2.101237
0.194087 -0.225134 2.088108
0.204050 -0.223497 2.072918
0.214144 -0.222168 2.060599
0.225160 -0.221881 2.057939
0.236314 -0.221752 2.056739
0.248687 -0.222726 2.065775
-0.407812 -0.216921 2.119815
-0.387203 -0.212006 2.071784
-0.374007 -0.210975 2.061707
-0.362202 -0.210688 2.058906
-0.351224 -0.210880 2.060782
-0.341952 -0.212143 2.073126
-0.333406 -0.213959 2.090870
-0.325027 -0.216015 2.110961
-0.218643 -0.213925 2.090533
-0.204776 -0.211450 2.066354
-0.191549 -0.209386 2.046182
-0.179626 -0.208579 2.038291
-0.167750 -0.207722 2.029917
-0.156037 -0.206960 2.022475
-0.144384 -0.206167 2.014721
-0.132934 -0.205557 2.008757
-0.121832 -0.205423 2.007447
-0.110787 -0.205367 2.006906
-0.099974 -0.205777 2.010908
-0.089187 -0.206348 2.016489
-0.078265 -0.206724 2.020162
-0.067244 -0.206920 2.022084
-0.056045 -0.206539 2.018358
-0.044835 -0.205920 2.012309
-0.033710 -0.205413 2.007357
-0.022711 -0.205556 2.008750
-0.011696 -0.205679 2.009952
-0.000669 -0.206368 2.016682
0.010450 -0.207428 2.027049
0.021703 -0.208689 2.039367
0.033055 -0.209709 2.049339
0.044636 -0.211300 2.064887
0.056447 -0.213117 2.082643
0.068866 -0.216230 2.113059
0.185703 -0.217272 2.123246
0.194589 -0.214229 2.093503
0.204791 -0.212893 2.080452
0.214789 -0.211496 2.066803
0.225261 -0.210684 2.058868
0.236693 -0.210804 2.060038
0.248411 -0.211157 2.063484
0.264828 -0.215298 2.103955
-0.404670 -0.203708 2.103482
-0.386615 -0.200333 2.068636
-0.374165 -0.199746 2.062576
-0.362819 -0.199731 2.062413
-0.352548 -0.200325 2.068551
-0.344288 -0.202139 2.087287
-0.335895 -0.203998 2.106475
-0.331686 -0.208620 2.154207
-0.220471 -0.204147 2.108017
-0.205683 -0.200999 2.075511
-0.192567 -0.199212 2.057054
-0.180335 -0.198174 2.046337
-0.167974 -0.196846 2.032629
-0.156373 -0.196285 2.026834
-0.144474 -0.195233 2.015976
-0.133290 -0.195055 2.014130
-0.122108 -0.194847 2.011985
-0.110971 -0.194677 2.010226
-0.100180 -0.195143 2.015047
-0.089432 -0.195819 2.022022
-0.078368 -0.195897 2.022826
-0.067283 -0.195940 2.023275
-0.056157 -0.195854 2.022381
-0.044957 -0.195407 2.017765
-0.033839 -0.195140 2.015016
-0.022801 -0.195300 2.016663
-0.011729 -0.195196 2.015594
-0.000671 -0.195703 2.020820
0.010466 -0.196602 2.030112
0.021759 -0.198003 2.044577
0.033229 -0.199511 2.060141
0.044745 -0.200461 2.069961
0.056643 -0.202389 2.089866
0.069523 -0.206588 2.133219
0.195535 -0.203728 2.103687
0.205149 -0.201830 2.084088
0.215543 -0.200858 2.074059
0.226168 -0.200190 2.067156
0.237369 -0.200070 2.065920
0.248730 -0.200091 2.066130
0.262750 -0.202154 2.087442
-0.400848 -0.190351 2.083615
-0.385941 -0.188653 2.065031
-0.374463 -0.188579 2.064219
-0.363326 -0.188677 2.065294
-0.354112 -0.189813 2.077729
-0.345614 -0.191421 2.095327
-0.337583 -0.193407 2.117066
-0.221367 -0.193362 2.116576
-0.206450 -0.190317 2.083247
-0.193364 -0.188702 2.065567
-0.180858 -0.187487 2.052269
-0.168497 -0.186271 2.038962
-0.156660 -0.185503 2.030555
-0.144868 -0.184675 2.021482
-0.133509 -0.184305 2.017437
-0.122423 -0.184282 2.017185
-0.111239 -0.184091 2.015092
-0.100244 -0.184204 2.016331
-0.089474 -0.184810 2.022968
-0.078455 -0.185003 2.025075
-0.067385 -0.185116 2.026320
-0.056221 -0.184967 2.024687
-0.045075 -0.184820 2.023072
-0.033899 -0.184410 2.018584
-0.022844 -0.184585 2.020500
-0.011774 -0.184839 2.023281
-0.000673 -0.185210 2.027339
0.010487 -0.185852 2.034371
0.021789 -0.187045 2.047428
0.033295 -0.188580 2.064235
0.044836 -0.189487 2.074156
0.056837 -0.191577 2.097043
0.069627 -0.195175 2.136419
0.205694 -0.190899 2.089619
0.216080 -0.189950 2.079227
0.226615 -0.189220 2.071238
0.237592 -0.188912 2.067863
0.249504 -0.189341 2.072558
0.262691 -0.190658 2.086977
-0.400716 -0.178859 2.082933
-0.386527 -0.177591 2.068163
-0.375474 -0.177731 2.069792
-0.365465 -0.178389 2.077455
-0.355668 -0.179196 2.086859
-0.347013 -0.180652 2.103806
-0.222291 -0.182507 2.125416
-0.206743 -0.179140 2.086209
-0.193776 -0.177746 2.069967
-0.181573 -0.176923 2.060385
-0.169086 -0.175696 2.046090
-0.156913 -0.174643 2.033833
-0.145141 -0.173909 2.025287
-0.133824 -0.173644 2.022203
-0.122676 -0.173571 2.021348
-0.111371 -0.173238 2.017469
-0.100379 -0.173373 2.019047
-0.089640 -0.174034 2.026739
-0.078755 -0.174555 2.032812
-0.067545 -0.174413 2.031152
-0.056322 -0.174172 2.028346
-0.045084 -0.173753 2.023471
-0.033955 -0.173621 2.021929
-0.022910 -0.173995 2.026282
-0.011803 -0.174177 2.028405
-0.000675 -0.174543 2.032673
0.010506 -0.174996 2.037945
0.021828 -0.176125 2.051094
0.033280 -0.177175 2.063316
0.044846 -0.178146 2.074625
0.056978 -0.180517 2.102237
0.069415 -0.182892 2.129903
0.207357 -0.180884 2.106516
0.216344 -0.178760 2.081774
0.227112 -0.178246 2.075787
0.238090 -0.177937 2.072197
0.249404 -0.177897 2.071726
0.262361 -0.178981 2.084352
0.277879 -0.181649 2.115424
-0.420577 -0.170855 2.125546
-0.401830 -0.167895 2.088724
-0.388491 -0.167088 2.078675
-0.376893 -0.167002 2.077614
-0.365704 -0.167099 2.078813
-0.356072 -0.167936 2.089225
-0.347252 -0.169224 2.105254
-0.207301 -0.168145 2.091833
-0.194159 -0.166717 2.074059
-0.181741 -0.165771 2.062291
-0.169190 -0.164570 2.047351
-0.156827 -0.163393 2.032716
-0.145443 -0.163135 2.029504
-0.133941 -0.162691 2.023975
-0.122832 -0.162687 2.023924
-0.111626 -0.162540 2.022099
-0.100474 -0.162449 2.020968
-0.089801 -0.163204 2.030362
-0.078887 -0.163676 2.036231
-0.067683 -0.163600 2.035283
-0.056453 -0.163422 2.033074
-0.045170 -0.162961 2.027339
-0.034078 -0.163115 2.029255
-0.022958 -0.163224 2.030609
-0.011827 -0.163377 2.032512
-0.000675 -0.163549 2.034648
0.010502 -0.163754 2.037203
0.021825 -0.164847 2.050799
0.033323 -0.166068 2.065996
0.044944 -0.167126 2.079153
0.056934 -0.168850 2.100595
0.069570 -0.171587 2.134646
0.208790 -0.170496 2.121076
0.217264 -0.168048 2.090622
0.227767 -0.167336 2.081767
0.238840 -0.167092 2.078724
0.250470 -0.167241 2.080582
0.263481 -0.168260 2.093256
0.278739 -0.170568 2.121970
-0.420821 -0.159284 2.126779
-0.402712 -0.156778 2.093308
-0.389702 -0.156167 2.085152
-0.377335 -0.155785 2.080051
-0.366150 -0.155882 2.081348
-0.356181 -0.156520 2.089867
-0.348565 -0.158269 2.113218
-0.207960 -0.157166 2.098489
-0.194412 -0.155539 2.076771
-0.181516 -0.154264 2.059741
-0.169106 -0.153259 2.046332
-0.157077 -0.152482 2.035949
-0.145687 -0.152254 2.032907
-0.134127 -0.151795 2.026776
-0.122978 -0.151761 2.026323
-0.111770 -0.151639 2.024701
-0.100727 -0.151741 2.026053
-0.089889 -0.152213 2.032359
-0.078994 -0.152710 2.038992
-0.067750 -0.152584 2.037320
-0.056457 -0.152276 2.033198
-0.045169 -0.151834 2.027294
-0.034077 -0.151974 2.029174
-0.022961 -0.152100 2.030858
-0.011843 -0.152423 2.035165
-0.000675 -0.152394 2.034774
0.010501 -0.152556 2.036941
0.021751 -0.153069 2.043794
0.033184 -0.154085 2.057351
0.044922 -0.155643 2.078157
0.056926 -0.157302 2.100315
0.069528 -0.159778 2.133372
0.218442 -0.157426 2.101962
0.228604 -0.156487 2.089423
0.239420 -0.156063 2.083770
0.251443 -0.156430 2.088670
0.264317 -0.157271 2.099892
0.279243 -0.159211 2.125803
-0.423926 -0.148704 2.142469
-0.404895 -0.146079 2.104656
-0.391984 -0.145573 2.097361
-0.378542 -0.144833 2.086706
-0.367427 -0.144965 2.088608
-0.357811 -0.145716 2.099431
-0.350952 -0.147678 2.127687
-0.223345 -0.148220 2.135498
-0.207712 -0.145477 2.095984
-0.193965 -0.143812 2.071993
-0.180962 -0.142525 2.053450
-0.168703 -0.141692 2.041452
-0.157156 -0.141382 2.036975
-0.145740 -0.141151 2.033649
-0.134239 -0.140791 2.028472
-0.123002 -0.140670 2.026718
-0.111916 -0.140714 2.027356
-0.100735 -0.140635 2.026218
-0.089857 -0.141011 2.031640
-0.078987 -0.141509 2.038814
-0.067784 -0.141476 2.038340
-0.056461 -0.141130 2.033345
-0.045277 -0.141047 2.032155
-0.034132 -0.141070 2.032484
-0.022982 -0.141083 2.032679
-0.011842 -0.141247 2.035038
-0.000676 -0.141332 2.036260
0.010508 -0.141479 2.038380
0.021736 -0.141761 2.042446
0.033102 -0.142444 2.052279
0.044735 -0.143637 2.069468
0.056758 -0.145347 2.094105
0.069469 -0.147947 2.131562
0.219255 -0.146435 2.109779
0.229408 -0.145532 2.096773
0.239771 -0.144841 2.086824
0.251794 -0.145172 2.091581
0.264430 -0.145811 2.100789
0.278945 -0.147390 2.123537
-0.424881 -0.137256 2.147295
-0.406040 -0.134911 2.110607
-0.392578 -0.134268 2.100541
-0.379230 -0.133626 2.090497
-0.368193 -0.133783 2.092963
-0.359072 -0.134669 2.106827
-0.353679 -0.137060 2.144221
-0.223006 -0.136295 2.132255
-0.206635 -0.133281 2.085112
-0.192912 -0.131724 2.060746
-0.180469 -0.130900 2.047854
-0.168619 -0.130425 2.040434
-0.157088 -0.130148 2.036098
-0.145740 -0.129992 2.033645
-0.134364 -0.129782 2.030361
-0.123349 -0.129914 2.032434
-0.112152 -0.129862 2.031617
-0.100881 -0.129705 2.029155
-0.089780 -0.129751 2.029890
-0.079007 -0.130355 2.039325
-0.067850 -0.130418 2.040311
-0.056481 -0.130017 2.034051
-0.045301 -0.129964 2.033212
-0.034147 -0.129972 2.033345
-0.022987 -0.129962 2.033175
-0.011830 -0.129943 2.032883
-0.000676 -0.130118 2.035630
0.010506 -0.130271 2.038016
0.021712 -0.130406 2.040125
0.033018 -0.130851 2.047092
0.044574 -0.131806 2.062034
0.056492 -0.133230 2.084317
0.069267 -0.135855 2.125372
0.219773 -0.135177 2.114763
0.229964 -0.134351 2.101846
0.240972 -0.134059 2.097278
0.252687 -0.134169 2.099002
0.265022 -0.134584 2.105495
0.280023 -0.136262 2.131742
-0.424737 -0.125431 2.146569
-0.406855 -0.123577 2.114843
-0.392844 -0.122825 2.101963
-0.380182 -0.122461 2.095744
-0.369629 -0.122776 2.101124
-0.360533 -0.123610 2.115403
-0.221208 -0.123590 2.115059
-0.206053 -0.121497 2.079239
-0.192503 -0.120161 2.056376
-0.180184 -0.119474 2.044622
-0.168386 -0.119065 2.037615
-0.156822 -0.118774 2.032647
-0.145638 -0.118750 2.032228
-0.134421 -0.118691 2.031225
-0.123452 -0.118862 2.034142
-0.112206 -0.118772 2.032610
-0.100883 -0.118572 2.029180
-0.089674 -0.118473 2.027496
-0.078796 -0.118846 2.033866
-0.067696 -0.118952 2.035685
-0.056451 -0.118794 2.032989
-0.045266 -0.118716 2.031641
-0.034123 -0.118734 2.031953
-0.022976 -0.118746 2.032170
-0.011822 -0.118713 2.031593
-0.000675 -0.118838 2.033743
0.010493 -0.118935 2.035390
0.021683 -0.119054 2.037432
0.032958 -0.119401 2.043373
0.044470 -0.120212 2.057242
0.056231 -0.121229 2.074656
0.068639 -0.123065 2.106078
0.220865 -0.124187 2.125273
0.230810 -0.123270 2.109584
0.241779 -0.122962 2.104305
0.253115 -0.122859 2.102552
0.266269 -0.123610 2.115400
0.282000 -0.125444 2.146794
-0.426728 -0.114185 2.156629
-0.407964 -0.112278 2.120604
-0.393850 -0.111576 2.107348
-0.382105 -0.111523 2.106346
-0.370953 -0.111645 2.108650
-0.361634 -0.112344 2.121859
-0.220208 -0.111478 2.105495
-0.205181 -0.109622 2.070441
-0.192028 -0.108609 2.051299
-0.179905 -0.108088 2.041463
-0.168201 -0.107766 2.035376
-0.156855 -0.107643 2.033072
-0.145416 -0.107435 2.029126
-0.134398 -0.107527 2.030879
-0.123358 -0.107618 2.032585
-0.112017 -0.107438 2.029182
-0.100732 -0.107277 2.026151
-0.089611 -0.107273 2.026065
-0.078657 -0.107497 2.030301
-0.067569 -0.107579 2.031861
-0.056458 -0.107653 2.033247
-0.045199 -0.107410 2.028654
-0.034097 -0.107502 2.030405
-0.022921 -0.107337 2.027276
-0.011821 -0.107558 2.031452
-0.000675 -0.107663 2.033432
0.010493 -0.107770 2.035465
0.021637 -0.107647 2.033136
0.032898 -0.107990 2.039614
0.044332 -0.108585 2.050845
0.056060 -0.109512 2.068353
0.068339 -0.111022 2.096890
0.081910 -0.113894 2.151119
0.222272 -0.113242 2.138816
0.231821 -0.112184 2.118822
0.242394 -0.111699 2.109660
0.253828 -0.111636 2.108478
0.267227 -0.112406 2.123017
0.282674 -0.113936 2.151923
-0.410148 -0.101181 2.131958
-0.396060 -0.100574 2.119172
-0.383674 -0.100376 2.114995
-0.372166 -0.100402 2.115549
-0.363538 -0.101232 2.133035
-0.235620 -0.101589 2.140557
-0.219094 -0.099419 2.094845
-0.204726 -0.098044 2.065853
-0.191641 -0.097157 2.047169
-0.179812 -0.096835 2.040398
-0.168144 -0.096565 2.034691
-0.156560 -0.096307 2.029259
-0.145349 -0.096256 2.028185
-0.134226 -0.096260 2.028282
-0.123181 -0.096326 2.029662
-0.111992 -0.096281 2.028724
-0.100704 -0.096133 2.025595
-0.089550 -0.096090 2.024693
-0.078575 -0.096255 2.028177
-0.067528 -0.096371 2.030621
-0.056339 -0.096291 2.028935
-0.045090 -0.096046 2.023760
-0.034022 -0.096149 2.025943
-0.022915 -0.096190 2.026793
-0.011821 -0.096407 2.031371
-0.000673 -0.096273 2.028554
0.010471 -0.096398 2.031187
0.021689 -0.096722 2.037999
0.032951 -0.096954 2.042904
0.044261 -0.097176 2.047576
0.055957 -0.097983 2.064579
0.068100 -0.099168 2.089552
0.081328 -0.101364 2.135825
0.223501 -0.102068 2.150641
0.233032 -0.101083 2.129894
0.243942 -0.100762 2.123131
0.255589 -0.100761 2.123108
0.268149 -0.101104 2.130340
0.283367 -0.102379 2.157197
-0.412073 -0.089902 2.141962
-0.397087 -0.089177 2.124667
-0.385602 -0.089217 2.125621
-0.374482 -0.089346 2.128712
-0.364306 -0.089717 2.137540
-0.232734 -0.088743 2.114335
-0.217240 -0.087181 2.077118
-0.203888 -0.086353 2.057396
-0.191480 -0.085852 2.045447
-0.179397 -0.085442 2.035694
-0.168021 -0.085337 2.033200
-0.156421 -0.085096 2.027450
-0.145142 -0.085006 2.025295
-0.133932 -0.084944 2.023836
-0.122862 -0.084969 2.024410
-0.111703 -0.084930 2.023497
-0.100664 -0.084984 2.024786
-0.089524 -0.084955 2.024097
-0.078358 -0.084892 2.022575
-0.067309 -0.084954 2.024057
-0.056237 -0.085005 2.025277
-0.045115 -0.084989 2.024888
-0.034006 -0.084993 2.024997
-0.022895 -0.084992 2.024972
-0.011805 -0.085145 2.028604
-0.000674 -0.085157 2.028891
0.010454 -0.085115 2.027910
0.021654 -0.085403 2.034762
0.032871 -0.085538 2.037969
0.044190 -0.085802 2.044266
0.055832 -0.086460 2.059934
0.067855 -0.087387 2.082028
0.080800 -0.089064 2.121981
0.233578 -0.089605 2.134883
0.244856 -0.089446 2.131083
0.256655 -0.089483 2.131957
0.269111 -0.089735 2.137981
0.285981 -0.091377 2.177102
-0.414115 -0.078537 2.152581
-0.398941 -0.077880 2.134586
-0.386924 -0.077819 2.132908
-0.375240 -0.077823 2.133020
-0.366902 -0.078544 2.152773
-0.231797 -0.076831 2.105825
-0.216784 -0.075625 2.072763
-0.203396 -0.074883 2.052437
-0.190856 -0.074385 2.038779
-0.179025 -0.074118 2.031476
-0.167650 -0.074018 2.028717
-0.156348 -0.073937 2.026502
-0.145039 -0.073840 2.023858
-0.133828 -0.073782 2.022268
-0.122727 -0.073779 2.022180
-0.111680 -0.073812 2.023083
-0.100611 -0.073835 2.023717
-0.089463 -0.073799 2.022737
-0.078466 -0.073895 2.025351
-0.067337 -0.073878 2.024903
-0.056184 -0.073823 2.023384
-0.045058 -0.073784 2.022311
-0.033991 -0.073848 2.024057
-0.022873 -0.073812 2.023072
-0.011784 -0.073885 2.025082
-0.000673 -0.073972 2.027481
0.010454 -0.073984 2.027792
0.021591 -0.074020 2.028786
0.032807 -0.074211 2.034016
0.044188 -0.074581 2.044173
0.055739 -0.075032 2.056520
0.067844 -0.075951 2.081702
0.080932 -0.077546 2.125438
0.234969 -0.078355 2.147599
0.246180 -0.078173 2.142610
0.257860 -0.078150 2.141974
0.269974 -0.078254 2.144836
0.285387 -0.079266 2.172581
-0.415736 -0.066986 2.161007
-0.400893 -0.066491 2.145034
-0.388408 -0.066369 2.141091
-0.377350 -0.066491 2.145014
-0.368075 -0.066944 2.159652
-0.230647 -0.064952 2.095380
-0.217099 -0.064344 2.075776
-0.203573 -0.063676 2.054220
-0.190966 -0.063234 2.039958
-0.179120 -0.063004 2.032547
-0.167567 -0.062854 2.027708
-0.156234 -0.062771 2.025023
-0.145088 -0.062756 2.024543
-0.133723 -0.062636 2.020671
-0.122606 -0.062621 2.020190
-0.111442 -0.062577 2.018758
-0.100384 -0.062589 2.019145
-0.089297 -0.062584 2.018981
-0.078316 -0.062662 2.021497
-0.067285 -0.062718 2.023315
-0.056095 -0.062620 2.020149
-0.044963 -0.062555 2.018031
-0.033922 -0.062614 2.019957
-0.022846 -0.062636 2.020644
-0.011785 -0.062777 2.025211
-0.000671 -0.062687 2.022306
0.010419 -0.062648 2.021043
0.021597 -0.062905 2.029326
0.032812 -0.063059 2.034291
0.044169 -0.063337 2.043287
0.055716 -0.063721 2.055659
0.067969 -0.064647 2.085528
0.080954 -0.065902 2.126026
0.235866 -0.066825 2.155792
0.247219 -0.066697 2.151655
0.259113 -0.066719 2.152383
0.272209 -0.067036 2.162591
-0.416459 -0.055225 2.164765
-0.402903 -0.054996 2.155789
-0.390133 -0.054863 2.150597
-0.378951 -0.054953 2.154115
-0.370121 -0.055400 2.171658
-0.231457 -0.053642 2.102739
-0.217331 -0.053011 2.077994
-0.203568 -0.052403 2.054167
-0.191145 -0.052090 2.041871
-0.179156 -0.051862 2.032959
-0.167374 -0.051669 2.025372
-0.155904 -0.051551 2.020751
-0.144592 -0.051471 2.017623
-0.133339 -0.051401 2.014874
-0.122243 -0.051384 2.014211
-0.111204 -0.051390 2.014457
-0.100146 -0.051388 2.014368
-0.089106 -0.051395 2.014648
-0.078122 -0.051442 2.016479
-0.067043 -0.051431 2.016043
-0.055957 -0.051409 2.015182
-0.044955 -0.051472 2.017678
-0.033900 -0.051497 2.018646
-0.022845 -0.051546 2.020576
-0.011761 -0.051560 2.021100
-0.000671 -0.051556 2.020952
0.010416 -0.051545 2.020544
0.021554 -0.051666 2.025278
0.032778 -0.051842 2.032167
0.044156 -0.052111 2.042718
0.055739 -0.052463 2.056527
0.067970 -0.053204 2.085572
0.081163 -0.054376 2.131510
0.237173 -0.055301 2.167744
0.247698 -0.054996 2.155821
0.259534 -0.054998 2.155873
0.273560 -0.055443 2.173323
-0.405791 -0.043476 2.171240
-0.392667 -0.043342 2.164565
-0.381180 -0.043387 2.166788
-0.371428 -0.043638 2.179329
-0.231420 -0.042098 2.102399
-0.217663 -0.041672 2.081165
-0.203614 -0.041141 2.054629
-0.191032 -0.040861 2.040659
-0.178903 -0.040650 2.030090
-0.167102 -0.040489 2.022075
-0.155552 -0.040371 2.016185
-0.144231 -0.040299 2.012586
-0.133048 -0.040257 2.010471
-0.121990 -0.040248 2.010041
-0.110776 -0.040181 2.006708
-0.099901 -0.040236 2.009440
-0.088814 -0.040208 2.008049
-0.077946 -0.040286 2.011948
-0.066881 -0.040271 2.011190
-0.055858 -0.040280 2.011633
-0.044755 -0.040222 2.008708
-0.033788 -0.040287 2.011964
-0.022759 -0.040307 2.012992
-0.011720 -0.040328 2.014010
-0.000670 -0.040396 2.017445
0.010408 -0.040425 2.018891
0.021544 -0.040536 2.024399
0.032751 -0.040659 2.030541
0.044151 -0.040897 2.042453
0.055755 -0.041191 2.057117
0.068031 -0.041798 2.087437
0.081509 -0.042863 2.140604
0.239210 -0.043779 2.186354
0.249324 -0.043451 2.169974
0.260663 -0.043356 2.165251
0.275142 -0.043769 2.185897
-0.407382 -0.031686 2.179753
-0.393437 -0.031527 2.168811
-0.382281 -0.031588 2.173046
-0.371824 -0.031713 2.181650
-0.217450 -0.030223 2.079128
-0.203746 -0.029886 2.055966
-0.191248 -0.029697 2.042964
-0.179234 -0.029565 2.033839
-0.167205 -0.029412 2.023322
-0.155384 -0.029277 2.014015
-0.143881 -0.029185 2.007711
-0.132780 -0.029166 2.006423
-0.121566 -0.029117 2.003051
-0.110604 -0.029125 2.003575
-0.099544 -0.029106 2.002254
-0.088640 -0.029133 2.004116
-0.077696 -0.029153 2.005482
-0.066616 -0.029120 2.003216
-0.055699 -0.029159 2.005898
-0.044634 -0.029121 2.003286
-0.033645 -0.029124 2.003500
-0.022709 -0.029198 2.008584
-0.011705 -0.029240 2.011471
-0.000667 -0.029205 2.009114
0.010379 -0.029266 2.013312
0.021496 -0.029362 2.019896
0.032720 -0.029488 2.028573
0.044021 -0.029603 2.036469
0.055648 -0.029846 2.053156
0.067906 -0.030288 2.083606
0.081046 -0.030940 2.128444
0.240670 -0.031976 2.199698
0.250398 -0.031680 2.179320
0.261754 -0.031607 2.174314
0.275765 -0.031847 2.190848
-0.410818 -0.019892 2.198137
-0.395491 -0.019729 2.180134
-0.383817 -0.019744 2.181773
-0.217175 -0.018791 2.076501
-0.203955 -0.018624 2.058076
-0.191560 -0.018518 2.046300
-0.179124 -0.018394 2.032591
-0.166979 -0.018285 2.020588
-0.155287 -0.018214 2.012753
-0.143812 -0.018160 2.006735
-0.132345 -0.018097 1.999860
-0.121184 -0.018069 1.996760
-0.110306 -0.018082 1.998178
-0.099282 -0.018071 1.996991
-0.088309 -0.018068 1.996637
-0.077459 -0.018093 1.999379
-0.066519 -0.018101 2.000307
-0.055520 -0.018094 1.999451
-0.044480 -0.018066 1.996367
-0.033523 -0.018064 1.996189
-0.022603 -0.018091 1.999189
-0.011645 -0.018110 2.001199
-0.000665 -0.018131 2.003560
0.010345 -0.018161 2.006831
0.021466 -0.018253 2.017052
0.032685 -0.018338 2.026406
0.044067 -0.018448 2.038587
0.055757 -0.018616 2.057194
0.067918 -0.018859 2.083975
0.081097 -0.019273 2.129775
0.251104 -0.019777 2.185463
0.263301 -0.019792 2.187165
0.276917 -0.019909 2.199995
-0.397929 -0.007814 2.193577
-0.385706 -0.007810 2.192511
-0.378696 -0.007915 2.221972
-0.216791 -0.007384 2.072827
-0.204271 -0.007343 2.061261
-0.191501 -0.007287 2.045670
-0.178702 -0.007224 2.027804
-0.166630 -0.007183 2.016371
-0.154880 -0.007151 2.007477
-0.143397 -0.007128 2.000957
-0.132001 -0.007105 1.994662
-0.120992 -0.007102 1.993602
-0.110046 -0.007101 1.993478
-0.099186 -0.007107 1.995061
-0.088251 -0.007108 1.995318
-0.077355 -0.007113 1.996686
-0.066467 -0.007120 1.998743
-0.055483 -0.007118 1.998141
-0.044430 -0.007103 1.994109
-0.033454 -0.007096 1.992122
-0.022536 -0.007100 1.993211
-0.011630 -0.007119 1.998523
-0.000664 -0.007120 1.998853
0.010329 -0.007138 2.003670
0.021417 -0.007169 2.012418
0.032609 -0.007202 2.021730
0.044011 -0.007253 2.036007
0.055772 -0.007330 2.057736
0.067817 -0.007413 2.080882
0.081029 -0.007580 2.127983
0.252267 -0.007821 2.195586
0.264826 -0.007836 2.199835
0.278029 -0.007868 2.208827
-0.400774 0.004253 2.209258
-0.388010 0.004246 2.205609
-0.379759 0.004289 2.228207
-0.217256 0.003998 2.077275
-0.204380 0.003970 2.062362
-0.191504 0.003938 2.045703
-0.178447 0.003898 2.024917
-0.166448 0.003877 2.014164
-0.154511 0.003855 2.002694
-0.143028 0.003842 1.995798
-0.131695 0.003831 1.990025
-0.120609 0.003825 1.987286
-0.109630 0.003823 1.985937
-0.099017 0.003834 1.991661
-0.088053 0.003832 1.990851
-0.077231 0.003837 1.993480
-0.066478 0.003848 1.999070
-0.055434 0.003843 1.996357
-0.044397 0.003836 1.992628
-0.033409 0.003829 1.989425
-0.022475 0.003826 1.987890
-0.011588 0.003833 1.991349
-0.000662 0.003837 1.993334
0.010298 0.003845 1.997624
0.021350 0.003862 2.006118
0.032556 0.003885 2.018413
0.043940 0.003913 2.032714
0.055533 0.003944 2.048904
0.067611 0.003993 2.074551
0.080389 0.004064 2.111190
0.242723 0.004270 2.218468
0.253409 0.004245 2.205526
0.265466 0.004245 2.205148
0.278751 0.004263 2.214569
0.297797 0.004364 2.267053
-0.402329 0.016439 2.217830
-0.389735 0.016421 2.215415
-0.381067 0.016572 2.235882
-0.372621 0.016744 2.259057
-0.217276 0.015398 2.077467
-0.204139 0.015268 2.059925
-0.191400 0.015154 2.044588
-0.178172 0.014986 2.021796
-0.165825 0.014873 2.006626
-0.154290 0.014823 1.999831
-0.142938 0.014784 1.994543
-0.131583 0.014738 1.988333
-0.120371 0.014701 1.983360
-0.109640 0.014721 1.986112
-0.098899 0.014745 1.989290
-0.088157 0.014774 1.993201
-0.077378 0.014804 1.997288
-0.066445 0.014810 1.998052
-0.055415 0.014792 1.995686
-0.044343 0.014751 1.990222
-0.033369 0.014728 1.987068
-0.022456 0.014721 1.986153
-0.011554 0.014716 1.985464
-0.000660 0.014738 1.988432
0.010279 0.014778 1.993856
0.021306 0.014839 2.002014
0.032485 0.014928 2.014017
0.043855 0.015037 2.028768
0.055362 0.015140 2.042611
0.067427 0.015335 2.068911
0.080407 0.015652 2.111648
0.243612 0.016503 2.226595
0.254249 0.016402 2.212837
0.265790 0.016365 2.207843
0.278766 0.016415 2.214688
-0.402846 0.028645 2.220677
-0.389598 0.028567 2.214640
-0.380537 0.028801 2.232776
-0.370129 0.028945 2.243951
-0.216988 0.026762 2.074713
-0.203805 0.026528 2.056564
-0.190937 0.026310 2.039645
-0.177997 0.026054 2.019807
-0.165893 0.025894 2.007450
-0.154121 0.025768 1.997640
-0.142514 0.025651 1.988626
-0.131333 0.025599 1.984560
-0.120366 0.025583 1.983286
-0.109467 0.025579 1.982995
-0.098798 0.025634 1.987242
-0.087973 0.025657 1.989038
-0.077281 0.025731 1.994771
-0.066448 0.025775 1.998167
-0.055461 0.025764 1.997324
-0.044308 0.025652 1.988644
-0.033315 0.025590 1.983835
-0.022432 0.025593 1.984086
-0.011539 0.025579 1.983038
-0.000660 0.025629 1.986878
0.010249 0.025644 1.988043
0.021249 0.025755 1.996643
0.032381 0.025896 2.007607
0.043664 0.026056 2.019961
0.055311 0.026324 2.040731
0.067594 0.026753 2.074035
0.080679 0.027331 2.118805
0.233114 0.028934 2.243138
0.243626 0.028723 2.226716
0.254088 0.028525 2.211433
0.265449 0.028443 2.205013
0.278136 0.028503 2.209683
-0.403703 0.040917 2.225405
-0.390484 0.040811 2.219672
-0.380262 0.041023 2.231161
-0.370037 0.041248 2.243394
-0.359597 0.041463 2.255120
-0.216860 0.038124 2.073488
-0.203570 0.037769 2.054188
-0.190111 0.037339 2.030818
-0.177583 0.037050 2.015111
-0.165410 0.036802 2.001603
-0.153888 0.036674 1.994622
-0.142571 0.036578 1.989425
-0.131185 0.036448 1.982332
-0.120196 0.036414 1.980492
-0.109345 0.036419 1.980779
-0.098784 0.036533 1.986966
-0.088047 0.036602 1.990722
-0.077385 0.036726 1.997462
-0.066552 0.036796 2.001271
-0.055465 0.036726 1.997493
-0.044281 0.036542 1.987453
-0.033293 0.036451 1.982506
-0.022407 0.036438 1.981830
-0.011519 0.036395 1.979463
-0.000658 0.036444 1.982136
0.010239 0.036520 1.986267
0.021248 0.036709 1.996559
0.032329 0.036853 2.004389
0.043600 0.037085 2.016982
0.055167 0.037423 2.035411
0.067321 0.037979 2.065651
0.080400 0.038822 2.111471
0.233035 0.041229 2.242378
0.244497 0.041087 2.234685
0.254248 0.040685 2.212826
0.265743 0.040587 2.207453
0.279254 0.040791 2.218563
-0.403048 0.053042 2.221791
-0.391067 0.053070 2.222986
-0.380647 0.053319 2.233418
-0.370349 0.053602 2.245282
-0.359832 0.053872 2.256592
-0.228897 0.049644 2.079477
-0.216686 0.049461 2.071828
-0.203161 0.048942 2.050061
-0.189668 0.048369 2.026090
-0.177314 0.048034 2.012051
-0.165631 0.047849 2.004276
-0.153491 0.047495 1.989473
-0.142210 0.047374 1.984395
-0.131229 0.047341 1.982997
-0.120382 0.047354 1.983550
-0.109457 0.047336 1.982808
-0.098756 0.047422 1.986409
-0.088169 0.047591 1.993464
-0.077622 0.047832 2.003585
-0.066704 0.047887 2.005863
-0.055471 0.047692 1.997700
-0.044312 0.047480 1.988825
-0.033310 0.047354 1.983544
-0.022379 0.047254 1.979384
-0.011499 0.047174 1.976012
-0.000658 0.047324 1.982312
0.010252 0.047479 1.988771
0.021239 0.047644 1.995690
0.032309 0.047820 2.003092
0.043572 0.048121 2.015680
0.055129 0.048559 2.034020
0.067081 0.049138 2.058284
0.080081 0.050208 2.103096
0.093288 0.051121 2.141355
0.223546 0.054216 2.270979
0.234227 0.053807 2.253848
0.246384 0.053761 2.251929
0.256049 0.053202 2.228499
0.266687 0.052886 2.215290
0.279469 0.053005 2.220274
-0.404036 0.065393 2.227241
-0.391783 0.065387 2.227055
-0.382757 0.065938 2.245801
-0.371895 0.066198 2.254657
-0.360744 0.066423 2.262314
-0.230494 0.061480 2.093990
-0.215765 0.060571 2.063013
-0.202173 0.059898 2.040088
-0.189649 0.059481 2.025887
-0.176902 0.058937 2.007377
-0.165165 0.058681 1.998645
-0.153647 0.058471 1.991494
-0.142244 0.058276 1.984857
-0.131218 0.058217 1.982831
-0.120303 0.058200 1.982254
-0.109438 0.058206 1.982460
-0.098700 0.058289 1.985285
-0.088156 0.058521 1.993176
-0.077641 0.058841 2.004078
-0.066756 0.058939 2.007430
-0.055573 0.058761 2.001351
-0.044380 0.058483 1.991882
-0.033278 0.058182 1.981642
-0.022405 0.058183 1.981665
-0.011497 0.058009 1.975759
-0.000657 0.058149 1.980506
0.010238 0.058310 1.986020
0.021191 0.058463 1.991228
0.032240 0.058687 1.998861
0.043458 0.059026 2.010396
0.055033 0.059616 2.030479
0.067066 0.060419 2.057822
0.079957 0.061652 2.099821
0.094507 0.063692 2.169326
0.224364 0.066921 2.279287
0.235489 0.066530 2.265987
0.247609 0.066446 2.263122
0.257334 0.065758 2.239688
0.266734 0.065053 2.215683
0.279097 0.065101 2.217315
-0.404236 0.077652 2.228344
-0.393563 0.077960 2.237175
-0.385533 0.078828 2.262086
-0.374125 0.079040 2.268178
-0.363174 0.079367 2.277552
-0.229603 0.072688 2.085897
-0.215239 0.071716 2.057992
-0.201511 0.070859 2.033408
-0.189168 0.070418 2.020752
-0.176772 0.069901 2.005908
-0.165117 0.069627 1.998060
-0.153563 0.069361 1.990407
-0.142227 0.069159 1.984619
-0.131212 0.069094 1.982739
-0.120426 0.069147 1.984275
-0.109682 0.069238 1.986876
-0.098925 0.069340 1.989805
-0.088321 0.069587 1.996904
-0.077631 0.069828 2.003803
-0.066718 0.069914 2.006290
-0.055551 0.069715 2.000579
-0.044373 0.069401 1.991572
-0.033391 0.069288 1.988324
-0.022442 0.069171 1.984965
-0.011523 0.069006 1.980220
-0.000659 0.069158 1.984585
0.010245 0.069251 1.987248
0.021225 0.069501 1.994444
0.032258 0.069694 1.999981
0.043469 0.070076 2.010921
0.054910 0.070599 2.025944
0.066899 0.071532 2.052700
0.079636 0.072880 2.091392
0.094089 0.075261 2.159731
0.224985 0.079647 2.285593
0.236518 0.079309 2.275892
0.248613 0.079184 2.272303
0.259336 0.078655 2.257107
0.267662 0.077480 2.223392
0.279736 0.077445 2.222394
-0.405128 0.090078 2.233256
-0.395521 0.090685 2.248307
-0.387752 0.091766 2.275105
-0.375849 0.091908 2.278629
-0.363955 0.092062 2.282447
-0.241957 0.084451 2.093756
-0.228856 0.083860 2.079105
-0.214828 0.082850 2.054058
-0.201576 0.082044 2.034072
-0.188722 0.081314 2.015987
-0.176558 0.080809 2.003475
-0.165097 0.080581 1.997818
-0.153620 0.080312 1.991151
-0.142291 0.080085 1.985517
-0.131411 0.080094 1.985743
-0.120578 0.080136 1.986778
-0.109965 0.080347 1.992009
-0.099366 0.080616 1.998675
-0.088733 0.080921 2.006233
-0.077913 0.081116 2.011082
-0.067012 0.081279 2.015120
-0.055758 0.080992 2.008012
-0.044519 0.080594 1.998130
-0.033471 0.080391 1.993111
-0.022456 0.080112 1.986176
-0.011543 0.080011 1.983676
-0.000660 0.080227 1.989046
0.010244 0.080154 1.987216
0.021210 0.080385 1.992954
0.032262 0.080676 2.000173
0.043518 0.081201 2.013183
0.054942 0.081763 2.027104
0.066975 0.082889 2.055033
0.079725 0.084450 2.093726
0.093357 0.086434 2.142933
0.224499 0.091990 2.280657
0.236491 0.091787 2.275629
0.248866 0.091746 2.274610
0.260035 0.091285 2.263196
0.268676 0.090019 2.231815
0.280708 0.089951 2.230111
-0.405908 0.102529 2.237561
-0.395206 0.102939 2.246514
-0.388408 0.104426 2.278956
-0.376265 0.104526 2.281149
-0.363399 0.104426 2.278959
-0.242078 0.095987 2.094798
-0.227657 0.094769 2.068214
-0.214269 0.093876 2.048717
-0.201391 0.093119 2.032200
-0.188785 0.092407 2.016655
-0.176830 0.091944 2.006560
-0.164959 0.091467 1.996152
-0.153449 0.091136 1.988930
-0.142520 0.091126 1.988709
-0.131610 0.091128 1.988742
-0.120708 0.091136 1.988928
-0.110013 0.091317 1.992876
-0.099497 0.091703 2.001298
-0.089012 0.092218 2.012535
-0.078294 0.092602 2.020926
-0.067279 0.092704 2.023140
-0.055906 0.092255 2.013345
-0.044677 0.091882 2.005198
-0.033534 0.091501 1.996883
-0.022513 0.091242 1.991244
-0.011566 0.091079 1.987671
-0.000661 0.091190 1.990098
0.010254 0.091142 1.989059
0.021219 0.091362 1.993865
0.032298 0.091755 2.002439
0.043478 0.092164 2.011360
0.054998 0.092980 2.029160
0.066877 0.094027 2.052016
0.079303 0.095431 2.082649
0.092275 0.097056 2.118111
0.106995 0.099949 2.181248
0.223465 0.104022 2.270153
0.234839 0.103545 2.259737
0.245562 0.102843 2.244417
0.258050 0.102912 2.245915
0.268830 0.102324 2.233094
0.281328 0.102414 2.235042
