ply
format ascii 1.0
element vertex 1292
property float x
property float y
property float z
property uchar red
property uchar green
property uchar blue
end_header
0.078856 0.261720 1.810085 89 85 114
0.088697 0.261451 1.808227 88 83 114
0.098865 0.262103 1.812735 94 89 121
0.109195 0.263026 1.819122 109 105 141
0.119782 0.264363 1.828365 111 112 146
0.130637 0.266038 1.839948 119 119 149
0.142212 0.268834 1.859285 129 124 155
0.154513 0.272536 1.884891 135 130 157
0.254936 0.269362 1.862942 28 32 37
0.263037 0.267207 1.848038 35 41 60
0.271659 0.265723 1.837770 59 64 95
0.283412 0.267296 1.848653 93 91 127
0.304370 0.277144 1.916759 134 121 159
-0.243454 0.265704 1.770451 14 25 57
-0.232045 0.263777 1.757615 40 55 94
-0.221825 0.263094 1.753061 61 67 108
-0.212192 0.263077 1.752950 65 69 110
-0.204126 0.265093 1.766384 60 63 107
-0.195729 0.266860 1.778156 73 72 116
-0.185576 0.266292 1.774372 55 54 98
-0.176693 0.267584 1.782980 37 39 80
-0.170586 0.273478 1.822250 46 51 90
-0.160582 0.273468 1.822186 50 53 91
-0.149876 0.272184 1.813628 44 50 85
-0.139868 0.272074 1.812896 51 58 91
-0.129816 0.271857 1.811449 64 72 102
-0.119769 0.271613 1.809826 72 80 109
-0.109906 0.271780 1.810939 76 82 111
-0.099944 0.271710 1.810474 82 86 115
-0.090013 0.271722 1.810553 70 76 105
-0.080146 0.271951 1.812076 50 60 84
-0.070085 0.271494 1.809032 43 54 74
-0.059903 0.270342 1.801357 39 50 70
-0.049922 0.269819 1.797869 38 45 64
-0.040017 0.269546 1.796051 36 46 63
-0.030100 0.268993 1.792371 36 43 60
-0.020256 0.268870 1.791546 32 36 54
-0.010436 0.269154 1.793443 39 38 58
-0.000596 0.269584 1.796307 37 40 61
0.009268 0.269818 1.797864 35 39 58
0.019141 0.269926 1.798583 34 39 54
0.029051 0.270303 1.801095 41 46 61
0.039081 0.271326 1.807914 43 50 67
0.049036 0.271519 1.809202 66 63 85
0.059023 0.271795 1.811038 78 76 98
0.068949 0.271750 1.810740 82 82 106
0.078882 0.271742 1.810684 75 73 102
0.088668 0.271284 1.807636 80 82 112
0.098678 0.271536 1.809313 94 96 127
0.108762 0.271926 1.811910 97 93 129
0.119390 0.273497 1.822379 117 113 149
0.130251 0.275317 1.834504 125 119 154
0.141942 0.278506 1.855759 129 124 155
0.154948 0.283675 1.890195 137 132 161
0.256033 0.280788 1.870962 32 37 40
0.262713 0.277006 1.845762 39 48 62
0.270832 0.274967 1.832172 58 62 90
0.282433 0.276482 1.842271 104 99 131
-0.243303 0.275247 1.769352 24 47 79
-0.232044 0.273421 1.757608 31 53 94
-0.221616 0.272457 1.751411 40 48 88
-0.211288 0.271534 1.745480 52 56 97
-0.203461 0.273891 1.760630 50 52 93
-0.197399 0.278976 1.793323 60 57 102
-0.185232 0.275516 1.771078 61 58 103
-0.175618 0.275679 1.772127 51 50 92
-0.169145 0.281081 1.806854 48 51 89
-0.159913 0.282286 1.814597 52 53 91
-0.149486 0.281401 1.808908 52 57 90
-0.139351 0.280980 1.806200 50 58 88
-0.129447 0.280995 1.806299 67 72 103
-0.119424 0.280731 1.804603 68 76 105
-0.109626 0.280998 1.806315 72 80 109
-0.100045 0.281931 1.812315 74 80 109
-0.089997 0.281605 1.810223 77 81 109
-0.080031 0.281487 1.809464 64 73 93
-0.070093 0.281452 1.809233 47 56 76
-0.060054 0.280932 1.805893 31 42 62
-0.049992 0.280073 1.800370 27 39 57
-0.040022 0.279438 1.796291 27 40 56
-0.030008 0.277979 1.786911 25 35 52
-0.020212 0.278107 1.787736 26 33 50
-0.010406 0.278184 1.788230 32 35 56
-0.000593 0.277812 1.785839 37 39 63
0.009229 0.278499 1.790253 33 36 57
0.019155 0.280000 1.799901 35 37 55
0.029151 0.281152 1.807306 49 49 65
0.039125 0.281563 1.809948 50 48 67
0.049006 0.281273 1.808084 63 61 81
0.059009 0.281664 1.810597 64 61 86
0.068882 0.281414 1.808993 58 62 87
0.078696 0.281011 1.806404 72 74 104
0.088614 0.281031 1.806532 80 84 113
0.098539 0.281065 1.806751 87 90 121
0.108436 0.281024 1.806483 95 97 128
0.118874 0.282270 1.814494 110 109 141
0.129586 0.283926 1.825140 122 119 151
0.141331 0.287445 1.847759 136 131 162
0.154722 0.293616 1.887432 138 130 161
0.255100 0.289993 1.864139 28 33 34
0.261553 0.285866 1.837612 34 40 53
0.270802 0.284989 1.831970 60 62 86
0.282480 0.286638 1.842575 101 96 128
0.310338 0.304025 1.954338 139 130 170
-0.244056 0.285837 1.774824 27 53 90
-0.232216 0.283274 1.758909 33 55 96
-0.221378 0.281764 1.749532 47 59 99
-0.211328 0.281166 1.745818 50 48 90
-0.202836 0.282680 1.755222 50 48 90
-0.196407 0.287366 1.784317 66 56 102
-0.184191 0.283631 1.761126 64 57 102
-0.174975 0.284359 1.765645 40 36 78
-0.168698 0.290227 1.802082 35 34 74
-0.159526 0.291535 1.810204 53 56 94
-0.148883 0.290152 1.801612 47 55 85
-0.138841 0.289826 1.799593 50 58 88
-0.129102 0.290131 1.801482 61 66 97
-0.119277 0.290275 1.802380 73 81 111
-0.109596 0.290829 1.805821 66 78 106
-0.099776 0.291089 1.807431 68 76 105
-0.089971 0.291453 1.809695 76 77 103
-0.080077 0.291586 1.810518 71 68 93
-0.070180 0.291742 1.811484 49 53 77
-0.060244 0.291759 1.811591 24 35 57
-0.050180 0.291045 1.807159 19 31 49
-0.040086 0.289755 1.799148 16 29 43
-0.030170 0.289334 1.796538 15 27 39
-0.020203 0.287779 1.786881 20 31 45
-0.010393 0.287634 1.785978 39 48 68
-0.000593 0.287785 1.786915 56 62 85
0.009252 0.289025 1.794619 56 57 78
0.019177 0.290211 1.801981 28 28 46
0.029160 0.291161 1.807877 36 35 51
0.039137 0.291585 1.810511 50 49 69
0.048992 0.291112 1.807575 51 49 71
0.058902 0.291073 1.807336 55 59 84
0.068692 0.290534 1.803984 61 65 93
0.078561 0.290426 1.803313 69 73 102
0.088429 0.290337 1.802763 77 81 110
0.098243 0.290106 1.801326 87 90 121
0.108368 0.290753 1.805344 95 94 128
0.118683 0.291757 1.811579 108 107 139
0.129234 0.293142 1.820179 120 120 150
0.140673 0.296198 1.839155 139 134 165
0.153763 0.302090 1.875740 142 131 163
0.253321 0.298129 1.851143 30 33 37
0.260406 0.294652 1.829553 35 41 52
0.270795 0.295033 1.831924 63 65 89
0.282351 0.296614 1.841737 108 103 135
0.299448 0.303704 1.885764 131 117 158
-0.243978 0.295481 1.774256 32 60 101
-0.232522 0.293312 1.761228 30 58 99
-0.221474 0.291491 1.750294 32 55 93
-0.211153 0.290504 1.744369 47 49 89
-0.202173 0.291357 1.749489 52 48 90
-0.194979 0.294996 1.771344 62 54 101
-0.184607 0.293957 1.765101 63 56 101
-0.175022 0.294125 1.766111 47 42 87
-0.168351 0.299498 1.798377 41 37 78
-0.159226 0.300901 1.806799 56 55 95
-0.148912 0.300097 1.801968 58 60 94
-0.138693 0.299381 1.797669 60 63 94
-0.129031 0.299851 1.800495 63 71 101
-0.119061 0.299623 1.799124 66 74 104
-0.109328 0.300004 1.801413 66 72 101
-0.099688 0.300742 1.805845 67 74 101
-0.089925 0.301231 1.808778 70 75 100
-0.079911 0.300895 1.806765 67 74 99
-0.070048 0.301116 1.808088 53 64 86
-0.060165 0.301305 1.809227 38 49 71
-0.050176 0.300936 1.807008 29 39 57
-0.040117 0.299860 1.800550 22 33 47
-0.030159 0.299084 1.795889 9 20 34
-0.020194 0.297457 1.786121 28 37 57
-0.010371 0.296818 1.782279 45 52 79
-0.000594 0.298009 1.789431 50 58 87
0.009294 0.300256 1.802928 53 60 87
0.019213 0.300656 1.805328 32 36 60
0.029192 0.301416 1.809893 42 41 61
0.039152 0.301638 1.811226 46 45 71
0.048959 0.300830 1.806370 45 43 72
0.058763 0.300277 1.803051 54 54 84
0.068575 0.299922 1.800921 59 63 92
0.078431 0.299823 1.800324 67 72 105
0.088309 0.299821 1.800311 69 74 107
0.098139 0.299673 1.799423 83 85 120
0.108186 0.300155 1.802319 96 92 127
0.118244 0.300583 1.804887 113 108 139
0.128545 0.301514 1.810481 125 122 154
0.140358 0.305605 1.835046 139 131 162
0.154000 0.312863 1.878626 138 129 155
0.252277 0.307015 1.843510 30 33 37
0.260037 0.304259 1.826962 42 43 57
0.270185 0.304398 1.827797 65 62 88
0.281132 0.305395 1.833784 110 100 136
0.295676 0.310095 1.862006 141 123 164
-0.233275 0.303957 1.766933 30 57 101
-0.222102 0.301947 1.755250 34 59 99
-0.211443 0.300488 1.746768 41 49 89
-0.202228 0.301038 1.749962 47 46 85
-0.194675 0.304240 1.768579 50 49 88
-0.186174 0.306219 1.780083 65 61 103
-0.176403 0.306214 1.780053 65 59 100
-0.167864 0.308470 1.793168 52 48 84
-0.158655 0.309701 1.800321 50 51 85
-0.148569 0.309269 1.797813 58 63 96
-0.138679 0.309215 1.797495 59 64 95
-0.128815 0.309211 1.797475 64 73 100
-0.118868 0.308994 1.796211 69 78 105
-0.109072 0.309162 1.797191 69 72 103
-0.099397 0.309743 1.800566 64 68 97
-0.089585 0.309980 1.801942 65 72 99
-0.079908 0.310798 1.806701 63 73 97
-0.070122 0.311364 1.809988 55 65 89
-0.060236 0.311597 1.811344 38 49 71
-0.050162 0.310761 1.806483 27 37 55
-0.040032 0.309084 1.796735 18 28 45
-0.030092 0.308256 1.791919 28 36 53
-0.020144 0.306491 1.781661 21 28 53
-0.010343 0.305753 1.777375 44 52 81
-0.000592 0.306964 1.784411 55 62 95
0.009284 0.309808 1.800945 60 63 94
0.019234 0.310911 1.807354 33 34 62
0.029228 0.311725 1.812086 40 42 66
0.039130 0.311398 1.810186 29 33 58
0.048960 0.310749 1.806411 45 49 78
0.058832 0.310535 1.805169 53 56 87
0.068563 0.309749 1.800600 54 61 94
0.078377 0.309486 1.799075 66 71 102
0.087986 0.308566 1.793724 73 81 111
0.097894 0.308774 1.794932 84 89 122
0.107752 0.308798 1.795074 92 96 125
0.117928 0.309657 1.800067 109 107 137
0.128334 0.310938 1.807512 126 121 152
0.140049 0.314980 1.831010 145 135 165
0.154310 0.323823 1.882413 139 128 154
0.250489 0.314883 1.830446 28 32 33
0.259270 0.313357 1.821575 45 45 57
0.269601 0.313748 1.823847 82 77 106
0.281098 0.315419 1.833564 119 105 146
0.294956 0.319532 1.857471 146 125 170
-0.233470 0.313915 1.768409 23 41 78
-0.222829 0.312599 1.760998 31 40 83
-0.212520 0.311652 1.755663 36 43 76
-0.203446 0.312512 1.760507 38 44 73
-0.196703 0.317215 1.787001 38 40 74
-0.188984 0.320757 1.806956 32 35 66
-0.178451 0.319650 1.800720 23 30 57
-0.167986 0.318542 1.794477 19 28 55
-0.157855 0.317970 1.791252 31 40 67
-0.147981 0.317871 1.790696 50 56 85
-0.138209 0.317994 1.791393 67 71 100
-0.128586 0.318507 1.794281 63 71 100
-0.118818 0.318714 1.795448 68 79 107
-0.109016 0.318859 1.796265 72 78 107
-0.099155 0.318845 1.796183 73 77 106
-0.089538 0.319700 1.800999 68 72 100
-0.080065 0.321340 1.810238 64 73 100
-0.070073 0.321071 1.808726 53 61 90
-0.060273 0.321737 1.812473 44 49 74
-0.050241 0.321180 1.809336 28 33 58
-0.040037 0.318985 1.796970 20 27 52
-0.030106 0.318238 1.792765 25 32 57
-0.020159 0.316512 1.783039 19 26 51
-0.010335 0.315257 1.775970 35 41 70
-0.000591 0.316077 1.780591 45 52 85
0.009287 0.319777 1.801435 62 63 97
0.019235 0.320834 1.807388 47 45 75
0.029215 0.321528 1.811299 36 40 65
0.039108 0.321150 1.809171 32 42 66
0.048941 0.320532 1.805688 43 51 80
0.058691 0.319673 1.800850 47 57 87
0.068463 0.319164 1.797982 49 58 91
0.078181 0.318562 1.794588 64 69 100
0.087971 0.318353 1.793414 74 78 107
0.097801 0.318320 1.793228 84 88 117
0.107527 0.317985 1.791337 94 98 127
0.117586 0.318606 1.794835 113 111 141
0.128030 0.320096 1.803234 131 126 157
0.139159 0.322960 1.819364 143 135 166
0.152403 0.330021 1.859145 140 128 158
0.241874 0.326858 1.841327 26 32 31
0.249729 0.323942 1.824896 31 34 38
0.258876 0.322860 1.818804 64 62 81
0.268689 0.322661 1.817679 90 83 116
0.280115 0.324342 1.827151 126 114 156
0.297492 0.332560 1.873444 157 136 181
-0.200684 0.333640 1.823171 32 55 87
-0.189229 0.331100 1.809295 33 47 75
-0.178154 0.328983 1.797724 34 41 66
-0.167522 0.327481 1.789516 34 45 67
-0.157459 0.326976 1.786756 39 51 75
-0.147575 0.326798 1.785788 52 63 91
-0.137995 0.327318 1.788625 60 71 99
-0.128114 0.327148 1.787697 62 73 101
-0.118553 0.327835 1.791452 63 74 102
-0.108696 0.327752 1.790998 65 73 102
-0.099066 0.328406 1.794571 73 80 107
-0.089584 0.329750 1.801919 68 75 102
-0.079890 0.330548 1.806277 63 71 100
-0.069989 0.330597 1.806543 46 54 83
-0.060251 0.331562 1.811821 42 50 79
-0.050166 0.330614 1.806637 27 34 61
-0.039961 0.328219 1.793553 23 29 58
-0.030079 0.327775 1.791125 35 38 69
-0.020171 0.326488 1.784089 22 26 55
-0.010323 0.324641 1.774000 30 36 65
-0.000590 0.325277 1.777475 35 45 75
0.009259 0.328682 1.796079 43 48 81
0.019272 0.331393 1.810894 53 51 81
0.029179 0.331054 1.809040 39 37 66
0.039086 0.330888 1.808136 37 46 73
0.048960 0.330571 1.806405 37 49 77
0.058774 0.330020 1.803392 43 57 86
0.068466 0.329045 1.798064 52 66 95
0.078173 0.328376 1.794408 64 72 101
0.087907 0.327955 1.792110 73 77 106
0.097678 0.327747 1.790971 83 85 115
0.107647 0.328179 1.793332 102 100 130
0.117728 0.328851 1.797005 117 111 142
0.127932 0.329737 1.801846 138 130 161
0.138704 0.331856 1.813423 146 135 167
0.150997 0.337083 1.841989 147 135 165
0.239959 0.334293 1.826744 31 36 34
0.249039 0.333032 1.819852 51 47 66
0.258122 0.331871 1.813506 85 77 107
0.268644 0.332579 1.817373 117 103 144
0.280553 0.334891 1.830008 139 122 166
-0.200560 0.343430 1.822039 26 53 87
-0.188926 0.340483 1.806403 35 52 79
-0.177719 0.338018 1.793327 39 50 77
-0.167293 0.336839 1.787070 44 53 80
-0.157433 0.336724 1.786462 48 59 86
-0.147541 0.336519 1.785372 60 71 99
-0.137815 0.336691 1.786287 68 79 107
-0.127830 0.336208 1.783724 70 78 107
-0.118349 0.337084 1.788369 76 84 113
-0.108673 0.337507 1.790614 71 82 109
-0.098984 0.337972 1.793081 69 79 103
-0.089356 0.338772 1.797328 68 75 100
-0.079714 0.339709 1.802298 62 69 96
-0.069925 0.340199 1.804897 61 68 95
-0.060157 0.340967 1.808973 46 55 82
-0.050063 0.339826 1.802918 31 40 67
-0.040002 0.338403 1.795367 27 31 59
-0.030085 0.337676 1.791510 29 32 60
-0.020163 0.336132 1.783319 19 29 53
-0.010300 0.333640 1.770101 26 34 57
-0.000589 0.334190 1.773018 32 43 71
0.009232 0.337542 1.790798 40 48 78
0.019276 0.341399 1.811263 48 48 78
0.029185 0.341054 1.809435 34 34 64
0.039051 0.340511 1.806551 28 34 63
0.048920 0.340203 1.804916 38 46 75
0.058658 0.339248 1.799851 54 65 93
0.068308 0.338127 1.793903 51 68 95
0.078121 0.337997 1.793216 62 73 101
0.087678 0.336912 1.787459 68 74 103
0.097477 0.336878 1.787280 85 83 113
0.107625 0.337949 1.792960 102 96 127
0.117596 0.338332 1.794989 125 117 148
0.127627 0.338816 1.797557 140 129 161
0.138520 0.341352 1.811016 149 138 170
0.150328 0.345654 1.833838 146 133 165
0.229606 0.343824 1.824129 28 34 29
0.238778 0.342623 1.817759 32 35 40
0.248018 0.341612 1.812393 71 66 93
0.257105 0.340476 1.806365 106 95 133
0.267776 0.341444 1.811502 137 120 164
0.280431 0.344782 1.829213 161 139 187
0.294946 0.350097 1.857410 172 148 196
-0.199191 0.351016 1.809605 34 57 89
-0.188130 0.348918 1.798790 49 63 91
-0.177667 0.347757 1.792806 47 61 84
-0.167274 0.346607 1.786873 57 66 93
-0.157096 0.345784 1.782633 59 67 96
-0.147102 0.345286 1.780066 65 74 101
-0.137542 0.345807 1.782752 66 75 102
-0.127658 0.345533 1.781337 66 76 100
-0.118094 0.346149 1.784514 73 84 106
-0.108597 0.347090 1.789365 77 87 111
-0.099064 0.348094 1.794543 74 81 108
-0.089310 0.348455 1.796401 70 74 102
-0.079563 0.348939 1.798900 69 73 98
-0.069825 0.349600 1.802307 66 72 95
-0.060048 0.350261 1.805712 49 54 79
-0.050124 0.350146 1.805120 37 42 67
-0.040139 0.349449 1.801528 20 24 48
-0.030161 0.348383 1.796031 22 29 49
-0.020191 0.346408 1.785848 13 23 41
-0.010299 0.343301 1.769831 21 32 52
-0.000589 0.344037 1.773627 35 47 71
0.009204 0.346309 1.785340 43 51 80
0.019267 0.351181 1.810459 41 47 76
0.029190 0.351046 1.809758 25 28 56
0.039001 0.349973 1.804227 30 34 63
0.048790 0.349181 1.800148 41 49 78
0.058656 0.349110 1.799781 54 65 95
0.068355 0.348211 1.795145 61 69 98
0.078015 0.347364 1.790776 61 69 98
0.087547 0.346198 1.784769 69 75 104
0.097261 0.345917 1.783319 79 83 112
0.107236 0.346533 1.786492 105 103 133
0.117415 0.347644 1.792223 125 120 149
0.127493 0.348312 1.795667 142 132 162
0.138344 0.350843 1.808716 149 138 170
0.150110 0.355199 1.831172 153 142 174
0.165725 0.367546 1.894825 127 120 141
0.228610 0.352298 1.816217 24 31 28
0.238124 0.351631 1.812778 36 38 48
0.247237 0.350450 1.806685 69 64 96
0.256313 0.349308 1.800799 117 100 151
0.267171 0.350589 1.807405 159 138 187
0.279883 0.354125 1.825636 180 158 207
0.293450 0.358461 1.847987 185 161 209
-0.198386 0.359487 1.802294 42 62 93
-0.187367 0.357332 1.791488 53 70 96
-0.176852 0.355955 1.784585 61 74 96
-0.166734 0.355259 1.781097 63 72 99
-0.156663 0.354586 1.777721 59 68 95
-0.146879 0.354514 1.777361 65 76 104
-0.137197 0.354698 1.778283 69 83 106
-0.127581 0.355091 1.780255 73 86 108
-0.117952 0.355512 1.782363 72 85 107
-0.108382 0.356201 1.785818 67 83 106
-0.098901 0.357352 1.791591 73 80 107
-0.089368 0.358547 1.797579 66 70 98
-0.079654 0.359217 1.800939 62 69 96
-0.069844 0.359592 1.802819 58 68 92
-0.060001 0.359885 1.804286 49 59 83
-0.050153 0.360262 1.806178 36 44 67
-0.040263 0.360448 1.807109 18 26 43
-0.030320 0.360118 1.805459 14 21 36
-0.020268 0.357557 1.792617 8 16 33
-0.010306 0.353256 1.771053 23 34 54
-0.000588 0.353230 1.770925 26 35 62
0.009202 0.356037 1.784996 35 41 70
0.019252 0.360827 1.809013 37 39 69
0.029154 0.360528 1.807513 23 30 57
0.039032 0.360156 1.805646 32 42 66
0.048854 0.359528 1.802497 40 49 76
0.058599 0.358639 1.798042 53 61 90
0.068276 0.357648 1.793076 58 66 95
0.077968 0.356973 1.789688 63 71 100
0.087520 0.355882 1.784218 70 75 106
0.097258 0.355694 1.783278 84 87 118
0.106931 0.355320 1.781404 107 107 137
0.117082 0.356465 1.787144 126 122 151
0.127159 0.357226 1.790957 136 128 158
0.137898 0.359605 1.802887 151 143 173
0.149392 0.363502 1.822421 153 142 174
0.164374 0.374864 1.879384 137 128 154
0.228342 0.361840 1.814090 25 31 30
0.236737 0.359472 1.802220 38 37 57
0.245905 0.358421 1.796948 73 66 101
0.255183 0.357606 1.792861 118 102 149
0.265763 0.358608 1.797885 154 135 184
0.278284 0.362063 1.815207 186 165 214
0.292159 0.366979 1.839856 190 168 216
-0.197998 0.368654 1.798766 47 61 90
-0.186723 0.365901 1.785336 66 77 104
-0.176275 0.364554 1.778761 66 75 102
-0.166152 0.363759 1.774883 65 76 104
-0.156346 0.363602 1.774120 70 78 108
-0.146353 0.362963 1.771002 74 82 112
-0.136775 0.363335 1.772816 68 76 106
-0.127400 0.364344 1.777737 75 79 108
-0.117768 0.364723 1.779590 73 75 105
-0.108164 0.365265 1.782234 74 77 105
-0.098792 0.366776 1.789603 69 67 96
-0.089258 0.367956 1.795364 74 77 105
-0.079611 0.368902 1.799981 57 64 91
-0.069806 0.369281 1.801827 62 69 96
-0.060101 0.370404 1.807306 52 63 85
-0.050325 0.371438 1.812353 35 46 66
-0.040493 0.372482 1.817447 22 32 49
-0.030646 0.374008 1.824890 11 19 32
-0.020358 0.369025 1.800580 11 19 32
-0.010328 0.363754 1.774862 17 30 46
-0.000587 0.362617 1.769313 22 34 58
0.009206 0.366008 1.785857 37 46 73
0.019287 0.371419 1.812260 42 46 71
0.029158 0.370503 1.807788 19 28 48
0.038936 0.369154 1.801208 27 38 60
0.048756 0.368673 1.798861 38 48 72
0.058526 0.368043 1.795789 44 53 80
0.068170 0.366917 1.790294 53 64 92
0.077863 0.366303 1.787295 61 66 97
0.087414 0.365232 1.782072 66 77 105
0.097078 0.364800 1.779962 82 86 115
0.106693 0.364284 1.777447 103 101 131
0.116635 0.364873 1.780319 116 111 140
0.126901 0.366309 1.787324 137 128 155
0.137685 0.368926 1.800096 152 143 170
0.149246 0.373136 1.820639 162 150 180
0.163675 0.383538 1.871393 144 131 163
0.227659 0.370682 1.808665 15 17 27
0.235831 0.367947 1.795319 25 25 41
0.244977 0.366892 1.790172 71 61 97
0.254723 0.366780 1.789627 115 96 145
0.264107 0.366176 1.786679 150 134 182
0.277290 0.370694 1.808721 182 162 209
0.294669 0.380315 1.855668 200 179 224
-0.209012 0.380608 1.808671 36 54 91
-0.197303 0.377195 1.792451 55 66 96
-0.186677 0.375604 1.784894 61 76 102
-0.176051 0.373838 1.776498 66 79 105
-0.165661 0.372394 1.769637 65 73 102
-0.155868 0.372197 1.768700 69 75 104
-0.146127 0.372105 1.768265 59 73 101
-0.136561 0.372478 1.770035 69 73 102
-0.127279 0.373742 1.776045 72 76 105
-0.117633 0.374057 1.777543 68 72 100
-0.107944 0.374280 1.778602 72 75 103
-0.098515 0.375541 1.784594 72 76 104
-0.089087 0.377083 1.791922 69 70 96
-0.079416 0.377852 1.795577 65 69 93
-0.069808 0.379177 1.801873 66 72 95
-0.060213 0.381029 1.810671 52 60 83
-0.050451 0.382342 1.816909 41 50 70
-0.040767 0.385034 1.829702 24 32 49
-0.030976 0.388151 1.844514 19 25 38
-0.020402 0.379733 1.804511 0 0 0
-0.010348 0.374197 1.778208 30 43 59
-0.000587 0.372297 1.769175 23 34 56
0.009186 0.374959 1.781827 39 38 64
0.019275 0.381137 1.811185 43 44 65
0.029189 0.380816 1.809659 19 26 46
0.038916 0.378846 1.800298 30 41 63
0.048699 0.378102 1.796762 39 49 73
0.058373 0.376912 1.791109 55 65 89
0.068099 0.376345 1.788416 54 65 93
0.077746 0.375542 1.784596 54 62 91
0.087367 0.374806 1.781101 52 75 101
0.096919 0.373956 1.777059 82 88 117
0.106745 0.374217 1.778303 100 94 125
0.116575 0.374451 1.779413 119 109 139
0.126482 0.374874 1.781423 140 129 155
0.136922 0.376704 1.790119 154 141 167
0.148145 0.380299 1.807202 161 146 174
0.161327 0.388157 1.844545 150 138 168
0.227599 0.380506 1.808188 9 18 22
0.235497 0.377263 1.792776 15 23 30
0.245459 0.377456 1.793691 46 41 70
0.254537 0.376326 1.788323 108 91 135
0.264115 0.375992 1.786736 148 125 177
0.276282 0.379234 1.802144 172 150 199
0.291654 0.386501 1.836677 194 170 218
-0.208218 0.389049 1.801800 35 54 89
-0.196601 0.385653 1.786075 61 71 101
-0.185926 0.383848 1.777714 70 78 107
-0.175590 0.382581 1.771845 67 78 106
-0.165509 0.381754 1.768018 63 74 102
-0.155601 0.381247 1.765668 66 75 102
-0.145806 0.380969 1.764380 68 72 100
-0.136458 0.381902 1.768701 76 77 105
-0.126968 0.382550 1.771703 68 77 104
-0.117384 0.382997 1.773775 63 73 97
-0.107788 0.383487 1.776042 68 77 104
-0.098253 0.384308 1.779846 66 73 100
-0.088922 0.386201 1.788610 69 76 101
-0.079336 0.387313 1.793763 69 70 96
-0.069814 0.389099 1.802033 73 73 97
-0.060243 0.391158 1.811567 61 65 89
-0.050569 0.393226 1.821147 45 50 71
-0.040854 0.395920 1.833623 25 32 49
-0.031089 0.399731 1.851275 27 33 44
-0.020508 0.391659 1.813887 0 0 0
-0.010366 0.384652 1.781439 12 18 31
-0.000589 0.383134 1.774410 27 31 50
0.009189 0.384867 1.782433 27 31 50
0.019283 0.391234 1.811920 31 35 53
0.029224 0.391222 1.811867 20 24 43
0.039026 0.389820 1.805371 34 41 66
0.048692 0.387911 1.796532 35 44 71
0.058421 0.387056 1.792572 46 59 85
0.068048 0.385871 1.787083 55 68 90
0.077743 0.385322 1.784542 51 63 87
0.087333 0.384432 1.780419 65 72 99
0.096915 0.383690 1.776983 87 87 117
0.106669 0.383703 1.777043 94 94 124
0.116344 0.383452 1.775882 113 108 137
0.126394 0.384381 1.780183 129 118 150
0.136857 0.386343 1.789268 149 134 165
0.148047 0.389958 1.806012 164 149 180
0.161086 0.397683 1.841787 157 143 171
0.225812 0.387361 1.793983 9 16 19
0.235386 0.386918 1.791931 12 18 23
0.245152 0.386814 1.791449 36 33 55
0.254596 0.386228 1.788737 97 79 120
0.263691 0.385177 1.783868 129 102 152
0.275027 0.387357 1.793964 160 128 183
0.287381 0.390769 1.809769 189 157 211
-0.207905 0.398335 1.799090 46 62 91
-0.196462 0.395174 1.784811 66 74 103
-0.185865 0.393474 1.777133 75 83 112
-0.175568 0.392253 1.771621 73 82 109
-0.165185 0.390688 1.764552 66 77 104
-0.155324 0.390240 1.762527 63 72 99
-0.145826 0.390703 1.764617 61 69 98
-0.136265 0.391053 1.766201 60 68 97
-0.126814 0.391796 1.769555 65 74 101
-0.117259 0.392314 1.771894 64 75 97
-0.107708 0.392940 1.774720 68 76 99
-0.098173 0.393755 1.778401 64 71 98
-0.088906 0.395943 1.788287 61 67 96
-0.079471 0.397833 1.796821 72 73 101
-0.069862 0.399261 1.803270 73 70 96
-0.060242 0.401091 1.811535 62 60 89
-0.050736 0.404554 1.827177 47 46 72
-0.040962 0.407059 1.838490 38 36 58
-0.031119 0.410284 1.853055 34 37 52
-0.020828 0.407866 1.842135 9 12 20
-0.010490 0.399136 1.802708 5 8 16
-0.000592 0.394907 1.783607 20 25 40
0.009252 0.397350 1.794639 29 36 55
0.019338 0.402319 1.817083 39 47 64
0.029231 0.401256 1.812281 23 30 49
0.038987 0.399325 1.803559 34 44 68
0.048714 0.397941 1.797311 42 53 80
0.058508 0.397480 1.795229 52 65 91
0.068148 0.396257 1.789704 51 63 87
0.077736 0.395075 1.784363 58 68 92
0.087280 0.393960 1.779330 71 75 103
0.096949 0.393578 1.777604 81 85 114
0.106464 0.392697 1.773625 94 95 123
0.116200 0.392710 1.773684 115 110 139
0.126327 0.393941 1.779242 134 121 153
0.136628 0.395500 1.786282 144 129 161
0.147567 0.398570 1.800152 158 143 174
0.160712 0.406841 1.837508 162 150 178
0.227418 0.400031 1.806748 9 17 16
0.235513 0.396966 1.792903 14 22 22
0.245380 0.397013 1.793116 28 28 46
0.254615 0.396072 1.788866 79 63 104
0.263105 0.394087 1.779904 98 74 128
0.274888 0.396999 1.793056 141 108 169
0.287364 0.400676 1.809662 173 139 199
-0.206930 0.406291 1.790647 50 60 90
-0.196052 0.404123 1.781091 67 76 103
-0.185367 0.402143 1.772366 70 80 104
-0.175256 0.401261 1.768477 71 81 105
-0.165364 0.400804 1.766462 68 79 106
-0.155361 0.400005 1.762941 61 69 98
-0.145830 0.400397 1.764670 59 67 96
-0.136540 0.401552 1.769761 63 71 100
-0.126883 0.401723 1.770513 60 64 92
-0.117212 0.401873 1.771176 72 78 101
-0.107825 0.403115 1.776647 73 77 101
-0.098359 0.404277 1.781768 66 70 98
-0.088898 0.405719 1.788126 60 66 95
-0.079544 0.408063 1.798454 69 73 97
-0.069953 0.409692 1.805636 71 72 93
-0.060344 0.411724 1.814590 64 65 86
-0.050818 0.415246 1.830111 55 53 75
-0.040987 0.417397 1.839594 49 49 67
-0.031251 0.422231 1.860898 33 34 48
-0.020784 0.417109 1.838323 10 13 21
-0.010728 0.418304 1.843591 7 12 15
-0.000603 0.412107 1.816280 12 18 29
0.009368 0.412319 1.817213 19 29 46
0.019397 0.413546 1.822621 30 40 58
0.029230 0.411182 1.812201 31 40 60
0.038978 0.409131 1.803163 31 42 69
0.048767 0.408251 1.799283 38 49 77
0.058423 0.406744 1.792643 43 54 84
0.068012 0.405265 1.786124 51 63 91
0.077648 0.404409 1.782352 56 64 93
0.087194 0.403325 1.777573 60 68 97
0.096874 0.403019 1.776224 69 75 104
0.106566 0.402816 1.775329 87 85 115
0.116288 0.402746 1.775023 105 97 128
0.126157 0.403161 1.776849 120 107 139
0.136577 0.405148 1.785606 142 127 155
0.147351 0.407852 1.797523 157 142 169
0.159478 0.413722 1.823397 154 140 168
0.227060 0.409300 1.803905 8 16 16
0.235070 0.406038 1.789530 17 22 31
0.244843 0.405961 1.789192 26 25 51
0.254037 0.404966 1.784805 60 46 94
0.263218 0.404027 1.780667 95 72 127
0.276505 0.409231 1.803602 130 102 162
-0.218349 0.419178 1.803818 20 31 51
-0.206397 0.415045 1.786036 56 62 91
-0.195385 0.412487 1.775028 69 77 106
-0.184861 0.410746 1.767535 71 79 108
-0.174893 0.410114 1.764813 71 79 108
-0.164840 0.409197 1.760870 62 73 100
-0.154998 0.408723 1.758829 65 75 99
-0.145509 0.409177 1.760785 65 74 101
-0.136133 0.410039 1.764490 62 71 98
-0.126869 0.411395 1.770326 67 72 97
-0.117323 0.411983 1.772859 67 71 95
-0.107798 0.412760 1.776201 71 76 101
-0.098400 0.414228 1.782518 65 70 95
-0.088958 0.415809 1.789324 69 73 98
-0.079487 0.417632 1.797168 63 67 92
-0.069984 0.419785 1.806431 62 61 87
-0.060398 0.422062 1.816230 60 58 80
-0.050862 0.425661 1.831715 54 51 73
-0.041100 0.428676 1.844690 48 46 66
-0.031319 0.433384 1.864953 32 34 45
-0.021356 0.438948 1.888893 5 10 11
-0.010845 0.433108 1.863763 6 9 17
-0.000614 0.429465 1.848089 19 20 34
0.009453 0.426128 1.833728 23 29 48
0.019409 0.423819 1.823789 29 36 55
0.029239 0.421265 1.812799 31 40 60
0.039071 0.420025 1.807463 40 47 72
0.048857 0.418896 1.802607 46 52 81
0.058458 0.416829 1.793710 49 53 82
0.068088 0.415530 1.788122 48 61 87
0.077643 0.414162 1.782236 53 64 91
0.087028 0.412295 1.774202 56 65 92
0.096732 0.412162 1.773627 78 82 111
0.106464 0.412160 1.773620 86 84 114
0.116185 0.412123 1.773459 98 96 126
0.126186 0.413004 1.777251 110 102 132
0.136516 0.414760 1.784806 139 126 150
0.147306 0.417587 1.796973 153 139 163
0.159623 0.424114 1.825061 156 141 168
0.227050 0.419179 1.803826 8 17 20
0.234575 0.414982 1.785763 14 20 31
0.244382 0.414995 1.785821 38 39 67
0.253339 0.413620 1.779903 80 66 114
0.262658 0.412917 1.776879 103 79 137
0.276650 0.419347 1.804548 122 94 154
-0.218502 0.429375 1.805079 28 41 55
-0.205978 0.423984 1.782414 60 69 96
-0.194794 0.420951 1.769663 65 73 102
-0.184322 0.419217 1.762375 71 77 106
-0.174439 0.418709 1.760237 64 75 103
-0.164514 0.418029 1.757381 57 70 96
-0.155065 0.418554 1.759584 55 72 99
-0.145336 0.418341 1.758690 56 71 97
-0.135894 0.418985 1.761396 60 71 98
-0.126641 0.420352 1.767145 64 71 96
-0.117201 0.421272 1.771012 67 72 97
-0.107788 0.422466 1.776031 72 75 103
-0.098341 0.423751 1.781433 75 80 105
-0.089005 0.425854 1.790274 62 68 91
-0.079503 0.427583 1.797545 62 61 87
-0.069912 0.429252 1.804562 58 55 80
-0.060450 0.432401 1.817798 59 58 78
-0.050872 0.435793 1.832060 48 47 67
-0.041204 0.439905 1.849343 44 41 66
-0.031389 0.444619 1.869164 24 25 39
-0.010869 0.444282 1.867746 5 9 14
-0.000614 0.439999 1.849739 23 26 40
0.009488 0.437799 1.840491 25 32 51
0.019429 0.434266 1.825638 28 35 60
0.029294 0.432018 1.816189 32 39 64
0.039130 0.430587 1.810174 33 42 69
0.048805 0.428334 1.800699 43 54 82
0.058420 0.426395 1.792551 52 60 89
0.068026 0.424957 1.786505 52 60 89
0.077691 0.424204 1.783340 54 66 94
0.087164 0.422687 1.776961 61 67 96
0.096803 0.422203 1.774927 73 71 101
0.106671 0.422713 1.777069 84 84 114
0.116277 0.422186 1.774854 101 99 129
0.126170 0.422703 1.777029 112 107 136
0.136372 0.424108 1.782935 130 121 147
0.147139 0.426962 1.794932 150 138 160
0.159300 0.433250 1.821369 146 133 155
0.226931 0.428852 1.802878 11 17 22
0.234881 0.425334 1.788089 16 18 29
0.244457 0.424924 1.786365 30 25 57
0.253544 0.423729 1.781343 79 64 115
0.263368 0.423809 1.781680 110 85 143
-0.217686 0.437640 1.798341 52 69 90
-0.205337 0.432415 1.776868 50 61 89
-0.195034 0.431192 1.771842 65 74 101
-0.184426 0.429130 1.763371 65 73 102
-0.174175 0.427717 1.757564 65 75 105
-0.164412 0.427408 1.756295 58 72 101
-0.154959 0.427917 1.758385 50 69 96
-0.145388 0.428144 1.759317 56 71 97
-0.135805 0.428367 1.760236 57 68 96
-0.126360 0.429094 1.763223 60 65 90
-0.116950 0.430069 1.767228 69 69 93
-0.107756 0.432085 1.775513 72 77 98
-0.098418 0.433865 1.782828 64 67 95
-0.089003 0.435664 1.790222 62 69 94
-0.079390 0.436821 1.794973 61 65 89
-0.070010 0.439772 1.807102 57 55 77
-0.060511 0.442820 1.819625 50 50 68
-0.050973 0.446730 1.835694 52 52 70
-0.041402 0.452214 1.858228 41 40 60
-0.030718 0.445152 1.829207 21 23 34
-0.010849 0.453724 1.864434 12 16 21
-0.000615 0.450681 1.851927 17 21 32
0.009491 0.448060 1.841157 23 30 50
0.019430 0.444309 1.825745 30 40 64
0.029322 0.442400 1.817899 37 44 71
0.039122 0.440440 1.809846 37 44 71
0.048875 0.438837 1.803260 39 48 75
0.058422 0.436244 1.792603 47 56 83
0.068069 0.435033 1.787625 51 57 86
0.077549 0.433197 1.780081 51 59 88
0.087157 0.432404 1.776824 52 63 91
0.096731 0.431620 1.773603 63 70 97
0.106281 0.430883 1.770573 76 80 105
0.116084 0.431208 1.771911 90 89 115
0.126338 0.433029 1.779394 106 103 129
0.136455 0.434153 1.784012 121 115 140
0.146667 0.435409 1.789171 140 129 155
0.158856 0.442008 1.816287 149 136 160
0.253544 0.433505 1.781348 64 54 100
0.265078 0.436401 1.793248 101 77 135
-0.216925 0.445943 1.792054 50 65 91
-0.205363 0.442220 1.777092 59 72 98
-0.194538 0.439793 1.767338 64 77 103
-0.184115 0.438066 1.760398 66 74 103
-0.173844 0.436531 1.754228 60 70 100
-0.164256 0.436631 1.754629 55 66 96
-0.154738 0.436942 1.755881 67 65 94
-0.145183 0.437180 1.756837 52 75 97
-0.135636 0.437482 1.758051 73 68 99
-0.126105 0.437881 1.759656 68 72 100
-0.116912 0.439619 1.766640 66 70 94
-0.107729 0.441715 1.775063 67 70 91
-0.098468 0.443873 1.783732 70 69 95
-0.089100 0.445977 1.792187 61 63 87
-0.079468 0.447110 1.796741 57 62 83
-0.070175 0.450747 1.811357 53 54 75
-0.060672 0.454007 1.824457 52 51 71
-0.051232 0.459128 1.845037 48 47 67
-0.041610 0.464734 1.867565 39 38 54
-0.000616 0.461990 1.856538 19 25 32
0.009492 0.458192 1.841275 23 30 49
0.019463 0.455099 1.828848 28 35 62
0.029365 0.453047 1.820600 37 42 67
0.039108 0.450204 1.809175 40 43 71
0.048883 0.448810 1.803572 44 48 77
0.058527 0.446884 1.795832 48 56 85
0.068146 0.445345 1.789647 52 58 87
0.077624 0.443390 1.781791 49 55 84
0.087031 0.441515 1.774259 56 67 95
0.096692 0.441175 1.772891 60 71 99
0.106196 0.440245 1.769155 75 79 107
0.115987 0.440564 1.770435 82 83 109
0.126004 0.441623 1.774693 100 98 120
0.136236 0.443231 1.781153 118 114 133
0.146783 0.445577 1.790583 137 130 151
0.159012 0.452418 1.818073 141 130 156
-0.298902 0.511976 2.013023 13 25 25
-0.295390 0.525376 2.065709 27 41 47
-0.295896 0.547275 2.151815 46 64 81
-0.233447 0.469220 1.844911 45 68 90
-0.217170 0.456291 1.794076 54 72 95
-0.205131 0.451460 1.775082 56 67 94
-0.194268 0.448867 1.764886 65 73 102
-0.183995 0.447435 1.759254 65 76 104
-0.173907 0.446319 1.754867 61 72 102
-0.164129 0.445915 1.753278 56 68 96
-0.154596 0.446166 1.754267 58 73 99
-0.145022 0.446326 1.754894 56 80 102
-0.135473 0.446589 1.755928 67 71 99
-0.125900 0.446812 1.756805 60 69 96
-0.116733 0.448627 1.763944 66 71 96
-0.107565 0.450769 1.772366 71 73 103
-0.098393 0.453317 1.782384 66 67 93
-0.089081 0.455710 1.791793 61 63 87
-0.079607 0.457768 1.799884 59 60 81
-0.070312 0.461583 1.814883 53 50 76
-0.060804 0.465027 1.828425 47 42 69
-0.051286 0.469743 1.846969 41 38 70
-0.041566 0.474473 1.865564 39 43 67
-0.000617 0.472888 1.859332 11 22 30
0.009497 0.468543 1.842250 18 26 43
0.019499 0.465985 1.832191 24 33 53
0.029373 0.463156 1.821069 31 36 61
0.039126 0.460338 1.809990 33 37 65
0.048911 0.458967 1.804596 45 49 78
0.058585 0.457186 1.797594 50 58 87
0.068107 0.454907 1.788635 48 56 86
0.077623 0.453162 1.781772 58 61 92
0.087062 0.451411 1.774887 59 67 96
0.096634 0.450633 1.771830 58 66 95
0.106293 0.450364 1.770772 71 75 103
0.116068 0.450593 1.771674 86 86 110
0.126014 0.451397 1.774835 98 96 118
0.136185 0.452834 1.780484 115 109 128
0.146918 0.455822 1.792233 130 119 139
0.159041 0.462478 1.818404 135 121 145
-0.290938 0.509086 1.959387 21 40 45
-0.292828 0.532057 2.047796 32 49 62
-0.299679 0.566231 2.179327 33 55 73
-0.230713 0.473730 1.823307 29 53 73
-0.216639 0.464996 1.789691 53 71 94
-0.204919 0.460724 1.773248 63 71 100
-0.194368 0.458787 1.765793 64 72 102
-0.184027 0.457167 1.759559 65 73 102
-0.173956 0.456077 1.755363 61 72 100
-0.164029 0.455256 1.752203 56 67 94
-0.154399 0.455211 1.752030 58 69 96
-0.144806 0.455274 1.752274 62 71 98
-0.135633 0.456764 1.758006 62 70 99
-0.126076 0.457089 1.759258 62 70 99
-0.116854 0.458779 1.765765 59 66 93
-0.107837 0.461660 1.776852 65 69 98
-0.098614 0.464138 1.786389 59 65 94
-0.089217 0.466255 1.794538 54 63 90
-0.079876 0.469223 1.805962 51 56 81
-0.070483 0.472692 1.819311 47 48 74
-0.060915 0.475932 1.831783 43 42 68
-0.051234 0.479394 1.845105 38 44 67
-0.000614 0.480486 1.849309 58 70 94
0.009525 0.480070 1.847709 19 30 44
0.019545 0.477178 1.836578 25 33 50
0.029403 0.473644 1.822974 29 34 59
0.039178 0.470902 1.812423 29 39 63
0.048870 0.468471 1.803067 42 53 81
0.058410 0.465654 1.792223 43 54 82
0.067949 0.463641 1.784477 51 59 88
0.077599 0.462794 1.781216 52 63 91
0.087208 0.461924 1.777867 57 65 94
0.096637 0.460369 1.771882 64 68 97
0.106280 0.460027 1.770566 70 72 102
0.116166 0.460700 1.773158 78 76 105
0.125975 0.460992 1.774280 95 92 117
0.136360 0.463199 1.782776 109 101 124
0.147226 0.466633 1.795993 124 113 133
0.159250 0.473078 1.820798 126 113 135
-0.291147 0.520212 1.960800 26 45 58
-0.293908 0.567055 2.137360 36 54 77
-0.231430 0.485238 1.828974 0 0 0
-0.216256 0.473976 1.786525 48 61 87
-0.204520 0.469539 1.769800 64 72 102
-0.194076 0.467771 1.763136 69 75 104
-0.183833 0.466329 1.757700 61 68 95
-0.173903 0.465565 1.754823 60 71 98
-0.163946 0.464637 1.751323 56 68 92
-0.154406 0.464845 1.752107 54 66 90
-0.144784 0.464821 1.752016 60 72 96
-0.135238 0.465051 1.752885 59 70 97
-0.126075 0.466739 1.759246 64 72 101
-0.116915 0.468715 1.766694 79 64 95
-0.107759 0.471068 1.775564 60 58 87
-0.098699 0.474350 1.787934 58 62 91
-0.089319 0.476644 1.796582 55 62 89
-0.080113 0.480556 1.811327 50 56 79
-0.070554 0.483155 1.821124 45 49 73
-0.061318 0.489200 1.843907 39 43 68
-0.052211 0.498855 1.880300 27 35 58
0.009594 0.493726 1.860966 13 23 40
0.019587 0.488302 1.840523 25 33 50
0.029468 0.484707 1.826972 33 38 59
0.039240 0.481601 1.815264 32 39 64
0.048924 0.478896 1.805069 40 49 76
0.058527 0.476445 1.795829 43 51 80
0.068089 0.474409 1.788156 47 55 84
0.077639 0.472812 1.782135 45 59 88
0.087146 0.471343 1.776601 55 65 95
0.096530 0.469573 1.769927 62 64 98
0.106213 0.469443 1.769439 46 45 77
0.116297 0.470964 1.775172 74 70 99
0.126210 0.471605 1.777588 82 79 104
0.136484 0.473411 1.784395 104 96 119
0.146670 0.474688 1.789208 118 107 127
0.158899 0.482003 1.816781 126 112 136
-0.291098 0.530881 1.960467 30 49 64
-0.291722 0.552434 2.040056 25 43 60
-0.295044 0.581020 2.145621 23 47 65
-0.231034 0.494426 1.825843 0 0 0
-0.216306 0.483890 1.786936 52 63 83
-0.204559 0.479341 1.770135 58 71 97
-0.193523 0.476084 1.758110 65 72 99
-0.183330 0.474672 1.752895 63 70 97
-0.173856 0.475065 1.754346 62 69 96
-0.163929 0.474196 1.751135 57 64 89
-0.154081 0.473461 1.748420 62 70 93
-0.144402 0.473181 1.747388 60 71 93
-0.135138 0.474320 1.751596 64 72 95
-0.125950 0.475918 1.757495 63 70 95
-0.117013 0.478811 1.768178 68 73 98
-0.107865 0.481283 1.777308 65 66 92
-0.098601 0.483679 1.786155 58 62 87
-0.089439 0.487156 1.798995 51 58 83
-0.080150 0.490724 1.812171 44 55 75
-0.070799 0.494863 1.827457 37 48 68
-0.061526 0.501010 1.850157 34 44 62
0.009647 0.506752 1.871361 16 29 45
0.019670 0.500496 1.848259 19 29 46
0.029535 0.495863 1.831148 25 35 53
0.039317 0.492534 1.818857 30 39 59
0.048914 0.488707 1.804725 37 44 71
0.058490 0.485986 1.794677 43 51 80
0.067895 0.482837 1.783048 52 60 89
0.077477 0.481585 1.778422 56 64 93
0.086957 0.480049 1.772751 55 63 93
0.096501 0.479138 1.769386 66 71 104
0.106247 0.479306 1.770007 46 60 88
0.116202 0.480310 1.773716 75 74 100
0.126383 0.482021 1.780033 89 88 108
0.136685 0.483915 1.787028 98 93 114
0.147179 0.486189 1.795426 112 100 122
0.159410 0.493555 1.822626 119 104 131
-0.291591 0.542556 1.963787 23 42 57
-0.291342 0.562895 2.037405 21 44 59
-0.230783 0.503897 1.823860 0 0 0
-0.215660 0.492222 1.781601 55 65 83
-0.204444 0.488779 1.769140 56 70 92
-0.193584 0.485885 1.758665 59 67 97
-0.183454 0.484617 1.754077 55 63 92
-0.173633 0.484070 1.752095 56 65 92
-0.163666 0.483029 1.748330 52 62 86
-0.153732 0.481960 1.744459 54 64 88
-0.144264 0.482307 1.745717 59 66 86
-0.134866 0.482955 1.748060 62 66 90
-0.125838 0.485130 1.755931 64 68 96
-0.116737 0.487360 1.764006 62 64 94
-0.107853 0.490980 1.777107 68 69 95
-0.098801 0.494477 1.789765 61 65 90
-0.089541 0.497593 1.801043 45 52 79
-0.080440 0.502478 1.818724 43 54 76
-0.071212 0.507835 1.838114 38 49 69
-0.062344 0.517952 1.874732 24 35 55
0.019716 0.511839 1.852606 24 34 51
0.029562 0.506367 1.832800 21 33 51
0.039321 0.502563 1.819030 26 40 59
0.048897 0.498429 1.804070 34 50 73
0.058455 0.495537 1.793602 39 51 79
0.067756 0.491614 1.779401 53 61 90
0.077309 0.490278 1.774565 61 65 94
0.086847 0.489159 1.770518 63 67 96
0.096608 0.489388 1.771345 72 78 107
0.106396 0.489705 1.772491 69 73 101
0.116127 0.489725 1.772563 77 80 101
0.126363 0.491711 1.779755 86 84 106
0.136922 0.494575 1.790120 92 89 111
0.147506 0.497142 1.799410 103 95 118
0.159611 0.504190 1.824920 115 102 128
-0.290972 0.552157 1.959617 27 45 62
-0.289739 0.570915 2.026190 18 35 54
-0.290764 0.595797 2.114499 45 61 77
-0.230430 0.513118 1.821068 0 0 0
-0.215567 0.501782 1.780835 58 65 85
-0.203943 0.497263 1.764799 61 72 100
-0.193517 0.495363 1.758057 57 68 96
-0.183420 0.494151 1.753754 55 63 92
-0.173240 0.492568 1.748137 61 69 98
-0.163362 0.491706 1.745077 56 64 93
-0.153650 0.491269 1.743527 56 64 93
-0.144214 0.491716 1.745111 62 72 96
-0.134923 0.492758 1.748810 58 65 90
-0.125791 0.494579 1.755272 57 61 89
-0.116815 0.497370 1.765177 60 61 89
-0.107982 0.501332 1.779241 57 58 84
-0.098862 0.504612 1.790880 60 64 89
-0.089778 0.508823 1.805826 50 56 79
-0.080591 0.513418 1.822134 45 52 72
-0.071371 0.519080 1.842229 37 43 62
-0.062561 0.530084 1.881283 22 33 53
0.019711 0.521864 1.852109 30 38 51
0.029504 0.515406 1.829187 21 29 52
0.039298 0.512245 1.817972 26 36 60
0.048871 0.508062 1.803126 40 49 76
0.058334 0.504335 1.789896 45 51 80
0.067745 0.501295 1.779109 55 63 92
0.077204 0.499339 1.772166 51 59 88
0.086706 0.498059 1.767625 64 70 99
0.096598 0.499060 1.771176 68 72 101
0.106476 0.499807 1.773828 68 72 97
0.116327 0.500315 1.775629 80 81 102
0.126539 0.502172 1.782221 88 85 110
0.136848 0.504127 1.789159 85 80 107
0.147719 0.507747 1.802008 98 88 118
0.159957 0.515320 1.828882 98 89 116
-0.290529 0.562053 1.956636 25 40 56
-0.290065 0.582687 2.028469 17 31 49
-0.287735 0.601071 2.092469 18 32 50
-0.229691 0.521432 1.815227 0 0 0
-0.214929 0.510038 1.775559 58 63 88
-0.203396 0.505588 1.760069 57 69 97
-0.193596 0.505217 1.758778 54 66 94
-0.183539 0.504102 1.754895 48 62 90
-0.173277 0.502267 1.748509 54 65 93
-0.163579 0.501947 1.747395 56 60 89
-0.153815 0.501376 1.745407 54 62 91
-0.144146 0.501056 1.744291 55 63 92
-0.134844 0.502058 1.747779 56 64 93
-0.125794 0.504225 1.755323 61 65 93
-0.116763 0.506831 1.764397 54 60 83
-0.107996 0.511160 1.779465 55 60 85
-0.098983 0.515067 1.793066 49 53 81
-0.089989 0.519946 1.810053 45 49 73
-0.080962 0.525830 1.830535 41 45 63
-0.071773 0.532172 1.852613 27 37 54
0.019812 0.534754 1.861604 30 36 49
0.029585 0.526900 1.834261 19 26 45
0.039297 0.522199 1.817897 28 38 62
0.048817 0.517379 1.801115 39 46 73
0.058331 0.514126 1.789793 39 48 75
0.067672 0.510512 1.777209 50 58 87
0.077171 0.508846 1.771410 53 61 91
0.086751 0.508026 1.768556 58 63 94
0.096591 0.508742 1.771048 62 66 94
0.106513 0.509716 1.774439 68 75 100
0.116413 0.510431 1.776930 75 79 104
0.126400 0.511391 1.780272 83 80 106
0.136898 0.514131 1.789808 86 81 108
0.147649 0.517391 1.801159 94 80 108
0.160498 0.527132 1.835067 94 83 109
-0.290275 0.572288 1.954923 21 34 48
-0.288264 0.590131 2.015875 17 36 51
-0.287463 0.611974 2.090489 30 44 62
-0.230100 0.532340 1.818462 0 0 0
-0.215366 0.520838 1.779172 44 58 81
-0.204008 0.516796 1.765365 54 68 96
-0.193715 0.515185 1.759860 55 67 95
-0.183232 0.512870 1.751953 48 61 87
-0.173126 0.511414 1.746981 52 65 91
-0.163300 0.510664 1.744419 53 62 89
-0.153489 0.509870 1.741706 54 62 91
-0.143967 0.509994 1.742129 57 63 92
-0.134587 0.510674 1.744453 45 53 82
-0.125624 0.513159 1.752941 45 54 81
-0.116661 0.516060 1.762851 52 62 86
-0.108035 0.521110 1.780101 48 57 84
-0.099271 0.526434 1.798286 48 59 81
-0.090454 0.532621 1.819423 44 51 71
-0.081301 0.538117 1.838197 38 42 60
0.019770 0.543834 1.857726 29 42 56
0.029658 0.538290 1.838788 15 26 48
0.039312 0.532380 1.818600 26 33 58
0.048774 0.526798 1.799533 35 42 67
0.058267 0.523377 1.787847 41 51 75
0.067618 0.519845 1.775780 46 52 81
0.077203 0.518775 1.772126 49 54 85
0.086947 0.518897 1.772542 57 60 91
0.096575 0.518374 1.770754 59 63 92
0.106461 0.519198 1.773571 61 67 96
0.116696 0.521450 1.781261 69 73 101
0.126709 0.522435 1.784628 73 77 101
0.137087 0.524676 1.792281 84 82 104
0.147919 0.528238 1.804450 88 79 100
0.160798 0.538206 1.838499 86 80 99
-0.290424 0.583314 1.955927 15 28 44
-0.288594 0.601880 2.018183 32 45 61
-0.288982 0.626739 2.101537 20 39 54
-0.229760 0.541516 1.815772 0 0 0
-0.214620 0.528762 1.773008 42 63 85
-0.203835 0.526036 1.763867 49 64 90
-0.193378 0.523928 1.756799 50 68 91
-0.183194 0.522375 1.751591 50 64 87
-0.172998 0.520615 1.745689 51 63 87
-0.163084 0.519548 1.742110 48 57 84
-0.153322 0.518860 1.739804 51 62 90
-0.143753 0.518781 1.739541 50 58 87
-0.134528 0.520016 1.743682 53 59 88
-0.125571 0.522560 1.752210 48 51 79
-0.116746 0.526119 1.764146 52 56 85
-0.108065 0.531026 1.780599 48 55 82
-0.099551 0.537812 1.803354 40 51 71
-0.090849 0.544971 1.827358 41 49 66
-0.081880 0.552102 1.851270 22 32 50
0.029670 0.548595 1.839511 18 33 52
0.039260 0.541648 1.816215 24 37 59
0.048727 0.536157 1.797803 33 43 67
0.058155 0.532157 1.784392 38 46 75
0.067553 0.529080 1.774073 41 44 75
0.077100 0.527795 1.769765 52 50 86
0.086779 0.527605 1.769128 61 60 94
0.096534 0.527862 1.769990 62 61 93
0.106558 0.529415 1.775196 67 67 97
0.116565 0.530625 1.779256 67 70 98
0.126894 0.533001 1.787222 79 78 104
0.137285 0.535281 1.794866 78 73 100
0.148059 0.538649 1.806160 85 75 98
0.161897 0.552039 1.851059 82 77 98
-0.290145 0.593475 1.954047 14 29 45
-0.289101 0.614032 2.021731 45 61 78
-0.230479 0.553206 1.821459 0 0 0
-0.214335 0.537777 1.770658 38 59 81
-0.203230 0.534125 1.758633 47 64 90
-0.193108 0.532823 1.754347 49 61 85
-0.183109 0.531741 1.750784 48 61 83
-0.172693 0.529259 1.742610 50 60 84
-0.162690 0.527829 1.737903 50 59 86
-0.153022 0.527374 1.736406 47 56 83
-0.143865 0.528736 1.740891 51 58 85
-0.134808 0.530687 1.747312 51 55 83
-0.125591 0.532259 1.752490 54 52 81
-0.116605 0.535150 1.762006 54 55 83
-0.107947 0.540208 1.778662 47 51 76
-0.099523 0.547552 1.802843 43 53 71
-0.091040 0.556165 1.831199 29 39 56
-0.082570 0.567001 1.866880 19 34 50
0.029732 0.559846 1.843320 19 33 55
0.039210 0.550915 1.813916 28 39 61
0.048724 0.545991 1.797702 33 40 65
0.058200 0.542373 1.785789 36 42 71
0.067587 0.539090 1.774981 39 47 77
0.077119 0.537644 1.770219 41 52 82
0.086687 0.536743 1.767253 48 54 83
0.096354 0.536573 1.766693 61 64 92
0.106524 0.538980 1.774618 59 63 91
0.116661 0.540834 1.780723 67 68 96
0.126913 0.542891 1.787495 73 70 96
0.137256 0.545016 1.794491 70 66 95
0.148669 0.550816 1.813590 78 71 98
-0.289947 0.603785 1.952713 14 32 49
-0.288617 0.624079 2.018346 20 37 56
-0.278247 0.651667 2.107568 0 0 0
-0.230037 0.562119 1.817961 0 0 0
-0.214485 0.547874 1.771892 47 58 85
-0.203336 0.544058 1.759548 48 56 85
-0.192958 0.542026 1.752977 45 53 82
-0.183049 0.541170 1.750208 47 56 83
-0.172567 0.538428 1.741342 55 64 91
-0.162617 0.537123 1.737120 46 54 83
-0.153228 0.537626 1.738747 51 61 85
-0.143881 0.538351 1.741091 55 62 87
-0.134827 0.540351 1.747559 47 51 79
-0.125484 0.541414 1.750998 54 57 85
-0.116490 0.544282 1.760274 47 51 79
-0.108206 0.551285 1.782921 38 42 67
-0.100138 0.560892 1.813993 41 45 63
-0.091652 0.570017 1.843504 30 37 54
0.029889 0.572988 1.853111 0 0 0
0.039227 0.561099 1.814662 22 33 55
0.048724 0.555859 1.797713 32 42 66
0.058180 0.551983 1.785178 37 45 74
0.067645 0.549300 1.776503 35 43 72
0.077139 0.547494 1.770660 41 52 80
0.086746 0.546809 1.768445 47 53 82
0.096474 0.546945 1.768887 54 58 87
0.106452 0.548347 1.773419 51 58 85
0.116722 0.550894 1.781656 61 64 92
0.126811 0.552257 1.786065 64 63 89
0.137310 0.555080 1.795197 72 67 94
0.149473 0.563801 1.823400 65 61 86
-0.290314 0.615278 1.955186 16 30 48
-0.288213 0.634264 2.015518 27 41 60
-0.289212 0.661861 2.103214 19 36 57
-0.284969 0.679254 2.158483 0 0 0
-0.232802 0.578972 1.839816 0 0 0
-0.214892 0.558655 1.775255 44 55 83
-0.203632 0.554519 1.762111 40 46 75
-0.193049 0.551906 1.753808 43 51 80
-0.182537 0.549232 1.745311 44 57 83
-0.172442 0.547588 1.740085 46 59 85
-0.162560 0.546465 1.736517 46 57 85
-0.153075 0.546621 1.737012 46 54 83
-0.143703 0.547224 1.738930 48 54 83
-0.134743 0.549596 1.746468 49 49 79
-0.125636 0.551688 1.753113 53 51 81
-0.116774 0.555292 1.764567 42 49 76
-0.108844 0.564376 1.793432 40 45 70
-0.100445 0.572594 1.819547 30 34 52
-0.092420 0.584997 1.858960 28 32 50
0.029978 0.584888 1.858616 0 0 0
0.039330 0.572555 1.819423 20 30 48
0.048711 0.565561 1.797200 29 37 60
0.058239 0.562349 1.786991 33 42 69
0.067685 0.559374 1.777538 40 48 77
0.077220 0.557797 1.772527 39 47 77
0.086799 0.556856 1.769537 42 49 82
0.096450 0.556514 1.768450 44 51 84
0.106453 0.558083 1.773435 52 61 88
0.116810 0.561089 1.782989 54 58 83
0.127009 0.562931 1.788842 50 50 74
0.137800 0.566946 1.801601 65 62 88
0.150121 0.576296 1.831311 62 59 81
-0.290267 0.625906 1.954873 9 22 38
-0.289869 0.649032 2.027102 31 47 64
-0.293077 0.682399 2.131316 20 34 57
-0.288669 0.700070 2.186508 54 69 95
-0.215631 0.570351 1.781360 44 55 82
-0.203886 0.564892 1.764310 34 44 68
-0.192686 0.560473 1.750507 44 54 78
-0.181757 0.556421 1.737852 42 57 83
-0.172066 0.555921 1.736292 40 53 79
-0.162439 0.555580 1.735225 49 54 85
-0.152953 0.555705 1.735617 41 46 77
-0.143829 0.557253 1.740451 42 45 76
-0.134682 0.558927 1.745678 45 47 77
-0.125705 0.561615 1.754074 37 41 65
-0.117168 0.566877 1.770510 40 49 69
-0.109098 0.575556 1.797615 37 46 66
-0.101099 0.586375 1.831406 33 41 58
0.039532 0.585539 1.828797 16 25 45
0.048892 0.577564 1.803889 24 32 55
0.058176 0.571531 1.785045 29 37 66
0.067621 0.568595 1.775875 34 42 71
0.077232 0.567613 1.772810 37 44 77
0.086784 0.566466 1.769225 44 53 86
0.096494 0.566477 1.769260 40 51 83
0.106458 0.567843 1.773525 48 59 87
0.117065 0.572122 1.786891 52 58 81
