# .PCD v0.7 - Point Cloud Data file format
VERSION 0.7
FIELDS x y z
SIZE 4 4 4
TYPE F F F
COUNT 1 1 1
WIDTH 1737
HEIGHT 1
VIEWPOINT 0 0 0 1 0 0 0
POINTS 1737
DATA ascii
0.073477 0.040265 1.686602
0.085617 0.041669 1.745440
-0.151633 0.050519 1.720646
-0.139986 0.049735 1.693952
-0.129603 0.049321 1.679847
-0.119868 0.049109 1.672626
-0.110090 0.048843 1.663567
-0.100552 0.048645 1.656807
-0.090921 0.048357 1.647028
-0.081338 0.048035 1.636059
-0.072099 0.047861 1.630128
-0.062942 0.047700 1.624649
-0.053781 0.047483 1.617250
-0.043488 0.045983 1.566139
-0.033454 0.044085 1.501518
-0.025068 0.043828 1.492745
-0.016826 0.043693 1.488173
-0.008640 0.043596 1.484845
-0.000492 0.043538 1.482891
0.007661 0.043635 1.486167
0.015831 0.043676 1.487566
0.023990 0.043669 1.487344
0.032272 0.043834 1.492950
0.040899 0.044305 1.509005
0.051934 0.046787 1.593526
0.062998 0.048575 1.654444
0.073178 0.049318 1.679758
-0.151847 0.060045 1.723075
-0.139990 0.059032 1.694000
-0.129729 0.058595 1.681481
-0.119960 0.058332 1.673908
-0.110181 0.058019 1.664938
-0.100622 0.057776 1.657969
-0.091073 0.057491 1.649772
-0.081438 0.057082 1.638060
-0.072010 0.056736 1.628120
-0.062900 0.056578 1.623573
-0.053411 0.055969 1.606110
-0.042401 0.053212 1.526986
-0.033361 0.052179 1.497341
-0.024997 0.051870 1.488494
-0.016781 0.051723 1.484263
-0.008630 0.051682 1.483081
-0.000494 0.051810 1.486758
0.007664 0.051808 1.486713
0.015839 0.051866 1.488356
0.024043 0.051944 1.490618
0.032379 0.052198 1.497905
0.041227 0.053006 1.521074
0.052908 0.056571 1.623399
0.062831 0.057501 1.650072
0.072855 0.058277 1.672332
-0.140545 0.068598 1.700714
-0.130019 0.067974 1.685246
-0.120091 0.067591 1.675744
-0.110378 0.067275 1.667909
-0.100798 0.066990 1.660854
-0.091057 0.066532 1.649498
-0.081558 0.066168 1.640487
-0.072085 0.065738 1.629807
-0.062739 0.065319 1.619420
-0.052866 0.064121 1.589726
-0.041841 0.060777 1.506816
-0.033305 0.060293 1.494810
-0.024980 0.059998 1.487516
-0.016798 0.059927 1.485742
-0.008646 0.059927 1.485739
-0.000494 0.059973 1.486895
0.007658 0.059920 1.485563
0.015814 0.059937 1.485980
0.024017 0.060060 1.489043
0.032420 0.060494 1.499802
0.041765 0.062153 1.540934
0.052944 0.065524 1.624513
0.062489 0.066193 1.641083
0.072583 0.067201 1.666085
-0.140805 0.078074 1.703865
-0.130343 0.077413 1.689445
-0.120155 0.076826 1.676628
-0.110465 0.076487 1.669231
-0.101008 0.076262 1.664315
-0.091031 0.075561 1.649021
-0.081431 0.075053 1.637927
-0.071925 0.074516 1.626211
-0.062586 0.074024 1.615468
-0.052172 0.071888 1.568853
-0.041695 0.068806 1.501590
-0.033271 0.068424 1.493267
-0.025023 0.068278 1.490073
-0.016804 0.068103 1.486260
-0.008625 0.067913 1.482113
-0.000492 0.067916 1.482176
0.007647 0.067968 1.483313
0.015833 0.068171 1.487744
0.024091 0.068440 1.493618
0.032663 0.069238 1.511025
0.042762 0.072295 1.577736
0.052783 0.074212 1.619580
0.062182 0.074828 1.633022
0.072204 0.075944 1.657389
-0.140893 0.087478 1.704933
-0.130653 0.086889 1.693457
-0.120432 0.086225 1.680501
-0.110468 0.085648 1.669271
-0.100904 0.085307 1.662613
-0.091387 0.084940 1.655462
-0.081522 0.084134 1.639765
-0.071969 0.083489 1.627189
-0.062576 0.082874 1.615205
-0.051484 0.079434 1.548160
-0.041582 0.076836 1.497517
-0.033216 0.076493 1.490833
-0.025001 0.076387 1.488763
-0.016806 0.076268 1.486439
-0.008635 0.076140 1.483949
-0.000492 0.076093 1.483030
0.007662 0.076264 1.486369
0.015894 0.076629 1.493481
0.024196 0.076970 1.500135
0.032905 0.078104 1.522234
0.043525 0.082396 1.605885
0.052776 0.083088 1.619369
0.061967 0.083499 1.627380
0.071929 0.084715 1.651083
0.083637 0.087485 1.705071
-0.141102 0.096977 1.707456
-0.130569 0.096120 1.692375
-0.120338 0.095371 1.679191
-0.110692 0.095000 1.672656
-0.101075 0.094590 1.665434
-0.091410 0.094047 1.655878
-0.081658 0.093286 1.642482
-0.071918 0.092353 1.626045
-0.062310 0.091347 1.608335
-0.050574 0.086377 1.520823
-0.041550 0.084987 1.496357
-0.033184 0.084590 1.489357
-0.024924 0.084296 1.484185
-0.016770 0.084244 1.483275
-0.008641 0.084339 1.484953
-0.000493 0.084379 1.485647
0.007672 0.084529 1.488286
0.015891 0.084807 1.493189
0.024217 0.085274 1.501414
0.033375 0.087690 1.543941
0.043635 0.091437 1.609926
0.052660 0.091771 1.615805
0.061894 0.092319 1.625450
0.071541 0.093268 1.642162
0.082165 0.095137 1.675064
-0.140881 0.106179 1.704782
-0.130547 0.105388 1.692081
-0.120220 0.104482 1.677540
-0.110796 0.104276 1.674224
-0.101259 0.103916 1.668450
-0.091467 0.103198 1.656920
-0.081670 0.102315 1.642739
-0.072037 0.101443 1.628739
-0.061660 0.099127 1.591554
-0.050178 0.093980 1.508916
-0.041508 0.093102 1.494822
-0.033107 0.092549 1.485939
-0.024894 0.092325 1.482350
-0.016739 0.092211 1.480513
-0.008625 0.092316 1.482204
-0.000493 0.092467 1.484622
0.007677 0.092751 1.489188
0.015895 0.093025 1.493582
0.024366 0.094089 1.510659
0.034088 0.098217 1.576941
0.043585 0.100156 1.608081
0.052579 0.100483 1.613319
0.061715 0.100945 1.620751
0.071109 0.101662 1.632255
0.081842 0.103917 1.668466
-0.141536 0.116071 1.712710
-0.130420 0.114561 1.690440
-0.120306 0.113768 1.678737
-0.110824 0.113492 1.674654
-0.100993 0.112775 1.664076
-0.091449 0.112268 1.656592
-0.081889 0.111627 1.647142
-0.072047 0.110395 1.628966
-0.060958 0.106633 1.573454
-0.050028 0.101952 1.504381
-0.041475 0.101225 1.493657
-0.033136 0.100789 1.487216
-0.024875 0.100385 1.481251
-0.016747 0.100382 1.481218
-0.008622 0.100419 1.481760
-0.000493 0.100671 1.485474
0.007684 0.101013 1.490528
0.015942 0.101516 1.497951
0.024637 0.103516 1.527452
0.034501 0.108164 1.596034
0.043467 0.108685 1.603724
0.052513 0.109198 1.611297
0.061617 0.109666 1.618198
0.071097 0.110600 1.631982
0.081403 0.112467 1.659529
-0.142094 0.125963 1.719458
-0.130661 0.124065 1.693557
-0.120476 0.123154 1.681110
-0.110759 0.122608 1.673663
-0.101229 0.122191 1.667963
-0.091537 0.121475 1.658191
-0.081690 0.120372 1.643141
-0.071935 0.119147 1.626419
-0.059727 0.112939 1.541680
-0.049855 0.109826 1.499184
-0.041416 0.109266 1.491533
-0.033156 0.109016 1.488124
-0.024920 0.108710 1.483954
-0.016746 0.108504 1.481132
-0.008630 0.108646 1.483071
-0.000494 0.109106 1.489353
0.007698 0.109393 1.493264
0.016018 0.110264 1.505156
0.025139 0.114178 1.558582
0.034485 0.116867 1.595300
0.043380 0.117251 1.600531
0.052453 0.117905 1.609458
0.061628 0.118565 1.618466
0.071017 0.119420 1.630149
0.081394 0.121559 1.659345
-0.142247 0.135543 1.721308
-0.130847 0.133548 1.695972
-0.120755 0.132685 1.685010
-0.110891 0.131949 1.675662
-0.101275 0.131403 1.668725
-0.091320 0.130264 1.654264
-0.081699 0.129401 1.643309
-0.071539 0.127367 1.617474
-0.059007 0.119935 1.523093
-0.049777 0.117868 1.496842
-0.041414 0.117444 1.491464
-0.033057 0.116832 1.483683
-0.024890 0.116710 1.482142
-0.016755 0.116697 1.481969
-0.008626 0.116722 1.482291
-0.000495 0.117400 1.490894
0.007723 0.117974 1.498192
0.016167 0.119620 1.519094
0.025573 0.124847 1.585469
0.034502 0.125685 1.596110
0.043414 0.126131 1.601772
0.052397 0.126601 1.607743
0.061590 0.127368 1.617487
0.071009 0.128350 1.629962
0.081093 0.130180 1.653195
0.093355 0.134787 1.711704
-0.143211 0.145971 1.732978
-0.131464 0.143529 1.703978
-0.121317 0.142592 1.692853
-0.111114 0.141428 1.679034
-0.101176 0.140422 1.667090
-0.091302 0.139313 1.653929
-0.081426 0.137956 1.637824
-0.070784 0.134804 1.600393
-0.058623 0.127457 1.513171
-0.049684 0.125847 1.494060
-0.041317 0.125334 1.487968
-0.033113 0.125185 1.486200
-0.024928 0.125035 1.484421
-0.016791 0.125091 1.485086
-0.008647 0.125169 1.486005
-0.000496 0.125725 1.492612
0.007758 0.126766 1.504968
0.016481 0.130442 1.548613
0.025676 0.134089 1.591905
0.034500 0.134435 1.596022
0.043370 0.134784 1.600155
0.052412 0.135462 1.608204
0.061490 0.136021 1.614851
0.070861 0.137008 1.626567
0.080828 0.138796 1.647793
0.092509 0.142873 1.696197
-0.132120 0.153641 1.712475
-0.121547 0.152168 1.696052
-0.111327 0.150930 1.682257
-0.101319 0.149780 1.669443
-0.091553 0.148797 1.658482
-0.081546 0.147160 1.640243
-0.068866 0.139694 1.557027
-0.058294 0.134999 1.504692
-0.049667 0.133998 1.493531
-0.041365 0.133654 1.489700
-0.033128 0.133399 1.486858
-0.024928 0.133178 1.484399
-0.016787 0.133210 1.484757
-0.008674 0.133732 1.490572
-0.000497 0.134275 1.496622
0.007832 0.136300 1.519199
0.016820 0.141797 1.580466
0.025741 0.143185 1.595935
0.034550 0.143398 1.598305
0.043429 0.143758 1.602318
0.052528 0.144604 1.611752
0.061668 0.145302 1.619534
0.071024 0.146268 1.630300
0.080754 0.147702 1.646283
0.091445 0.150431 1.676692
-0.132315 0.163279 1.715007
-0.121536 0.161460 1.695907
-0.111725 0.160733 1.688270
-0.101619 0.159412 1.674397
-0.091679 0.158114 1.660764
-0.080779 0.154691 1.624810
-0.067338 0.144951 1.522497
-0.058038 0.142625 1.498073
-0.049655 0.142159 1.493177
-0.041368 0.141837 1.489795
-0.033080 0.141353 1.484713
-0.024902 0.141176 1.482855
-0.016822 0.141656 1.487891
-0.008710 0.142509 1.496850
-0.000501 0.143550 1.507791
0.008039 0.148468 1.559447
0.016958 0.151704 1.593437
0.025758 0.152043 1.596995
0.034590 0.152347 1.600186
0.043523 0.152882 1.605804
0.052452 0.153227 1.609427
0.061661 0.154170 1.619333
0.070979 0.155115 1.629264
0.080530 0.156302 1.641732
0.090793 0.158491 1.664725
-0.122434 0.172028 1.708441
-0.111991 0.170401 1.692284
-0.101483 0.168374 1.672152
-0.091269 0.166478 1.653328
-0.077837 0.157648 1.565634
-0.066596 0.151615 1.505715
-0.057973 0.150677 1.496400
-0.049577 0.150115 1.490817
-0.041285 0.149712 1.486818
-0.033075 0.149478 1.484492
-0.024965 0.149691 1.486610
-0.016878 0.150319 1.492842
-0.008745 0.151316 1.502743
-0.000510 0.154626 1.535615
0.008171 0.159596 1.584981
0.016969 0.160556 1.594516
0.025770 0.160876 1.597694
0.034628 0.161302 1.601922
0.043507 0.161633 1.605204
0.052452 0.162055 1.609402
0.061599 0.162891 1.617704
0.070871 0.163806 1.626788
0.080251 0.164738 1.636045
0.090450 0.166993 1.658437
0.101499 0.170262 1.690904
-0.124212 0.184035 1.733240
-0.112282 0.180153 1.696677
-0.101849 0.178190 1.678184
-0.090145 0.173389 1.632968
-0.075611 0.161484 1.520850
-0.066333 0.159245 1.499765
-0.057923 0.158750 1.495107
-0.049522 0.158120 1.489166
-0.041252 0.157745 1.485635
-0.033106 0.157768 1.485857
-0.024986 0.157978 1.487831
-0.016904 0.158749 1.495097
-0.008820 0.160946 1.515782
-0.000522 0.167030 1.573085
0.008196 0.168810 1.589851
0.016968 0.169298 1.594444
0.025784 0.169737 1.598581
0.034639 0.170146 1.602429
0.043523 0.170505 1.605813
0.052536 0.171162 1.612000
0.061709 0.172077 1.620615
0.071014 0.173082 1.630082
0.080367 0.173965 1.638394
0.090034 0.175284 1.650823
0.100528 0.177823 1.674735
-0.112766 0.190280 1.703998
-0.102199 0.188041 1.683947
-0.074580 0.167514 1.500115
-0.066047 0.166753 1.493305
-0.057732 0.166402 1.490166
-0.049474 0.166130 1.487725
-0.041179 0.165602 1.483000
-0.033049 0.165638 1.483320
-0.025001 0.166241 1.488722
-0.017005 0.167948 1.504009
-0.009068 0.174020 1.558381
-0.000527 0.177424 1.588863
0.008204 0.177717 1.591485
0.016984 0.178209 1.595894
0.025790 0.178550 1.598953
0.034664 0.179068 1.603591
0.043597 0.179621 1.608542
0.052574 0.180137 1.613163
0.061629 0.180734 1.618505
0.070932 0.181816 1.628199
0.080391 0.183010 1.638890
0.089922 0.184113 1.648769
0.100019 0.186065 1.666248
0.111379 0.189844 1.700090
-0.113382 0.200720 1.713299
-0.083722 0.177677 1.516609
-0.074495 0.175546 1.498415
-0.066006 0.174837 1.492366
-0.057641 0.174305 1.487826
-0.049425 0.174123 1.486268
-0.041312 0.174299 1.487773
-0.033210 0.174621 1.490524
-0.025160 0.175522 1.498215
-0.017387 0.180166 1.537856
-0.009219 0.185610 1.584320
-0.000527 0.186136 1.588808
0.008195 0.186228 1.589597
0.016969 0.186801 1.594487
0.025768 0.187163 1.597581
0.034539 0.187189 1.597803
0.043529 0.188151 1.606007
0.052510 0.188757 1.611184
0.061616 0.189575 1.618170
0.070711 0.190155 1.623113
0.080025 0.191128 1.631422
0.089606 0.192481 1.642968
0.099289 0.193784 1.654095
0.110509 0.197618 1.686822
-0.082751 0.183843 1.499029
-0.074332 0.183364 1.495128
-0.066027 0.183086 1.492857
-0.057610 0.182369 1.487015
-0.049434 0.182308 1.486518
-0.041396 0.182834 1.490806
-0.033360 0.183627 1.497270
-0.025443 0.185807 1.515040
-0.017783 0.192898 1.572864
-0.009235 0.194641 1.587074
-0.000527 0.194695 1.587515
0.008189 0.194823 1.588563
0.016958 0.195429 1.593497
0.025749 0.195783 1.596387
0.034526 0.195881 1.597188
0.043475 0.196722 1.604046
0.052457 0.197399 1.609562
0.061544 0.198223 1.616282
0.070617 0.198798 1.620967
0.079714 0.199302 1.625081
0.089252 0.200700 1.636483
0.099096 0.202467 1.650883
0.109729 0.205412 1.674904
0.122633 0.211827 1.727207
-0.092519 0.195325 1.524448
-0.082591 0.191697 1.496132
-0.074116 0.191011 1.490778
-0.065794 0.190601 1.487574
-0.057601 0.190500 1.486792
-0.049442 0.190496 1.486761
-0.041415 0.191104 1.491507
-0.033501 0.192655 1.503607
-0.025847 0.197202 1.539096
-0.017877 0.202593 1.581167
-0.009220 0.203021 1.584511
-0.000527 0.203341 1.587013
0.008188 0.203510 1.588325
0.016926 0.203786 1.590486
0.025677 0.203972 1.591931
0.034446 0.204172 1.593491
0.043397 0.205151 1.601136
0.052434 0.206143 1.608877
0.061466 0.206829 1.614229
0.070462 0.207235 1.617401
0.079643 0.208035 1.623644
0.089036 0.209173 1.632523
0.098602 0.210471 1.642656
0.108748 0.212684 1.659932
0.120151 0.216825 1.692250
-0.102343 0.206635 1.546492
-0.091567 0.201594 1.508765
-0.082595 0.199916 1.496199
-0.074043 0.198997 1.489325
-0.065721 0.198542 1.485923
-0.057617 0.198712 1.487194
-0.049422 0.198574 1.486161
-0.041552 0.199945 1.496418
-0.033917 0.203402 1.522296
-0.026376 0.209860 1.570629
-0.017888 0.211401 1.582161
-0.009216 0.211612 1.583740
-0.000526 0.211646 1.583989
0.008169 0.211732 1.584634
0.016934 0.212609 1.591199
0.025641 0.212414 1.589741
0.034383 0.212528 1.590595
0.043281 0.213369 1.596885
0.052189 0.213963 1.601334
0.061235 0.214875 1.608156
0.070380 0.215858 1.615519
0.079638 0.216931 1.623543
0.088944 0.217903 1.630820
0.098383 0.218996 1.638999
0.108444 0.221174 1.655301
0.119289 0.224489 1.680114
-0.100561 0.211376 1.519566
-0.091057 0.208704 1.500358
-0.082324 0.207443 1.491295
-0.073900 0.206769 1.486448
-0.065694 0.206612 1.485319
-0.057553 0.206644 1.485550
-0.049547 0.207254 1.489933
-0.041837 0.209584 1.506689
-0.034646 0.216303 1.554990
-0.026504 0.219541 1.578265
-0.017845 0.219545 1.578296
-0.009197 0.219839 1.580406
-0.000525 0.220186 1.582901
0.008159 0.220151 1.582649
0.016876 0.220585 1.585774
0.025616 0.220921 1.588186
0.034365 0.221138 1.589746
0.043169 0.221557 1.592758
0.052114 0.222432 1.599049
0.061235 0.223700 1.608167
0.070384 0.224737 1.615618
0.079562 0.225624 1.621995
0.088712 0.226261 1.626577
0.098264 0.227713 1.637015
0.108260 0.229865 1.652488
0.119092 0.233323 1.677342
0.132240 0.240496 1.728910
-0.099857 0.218177 1.508937
-0.090769 0.216250 1.495611
-0.082314 0.215600 1.491117
-0.073867 0.214828 1.485776
-0.065574 0.214368 1.482596
-0.057614 0.215025 1.487141
-0.049999 0.217392 1.503511
-0.042817 0.222954 1.541977
-0.035123 0.227933 1.576415
-0.026477 0.227966 1.576642
-0.017820 0.227892 1.576126
-0.009181 0.228132 1.577786
-0.000525 0.228537 1.580586
0.008148 0.228519 1.580465
0.016837 0.228754 1.582089
0.025555 0.229087 1.584393
0.034370 0.229894 1.589972
0.043198 0.230451 1.593823
0.052101 0.231149 1.598657
0.061046 0.231804 1.603182
0.070219 0.233053 1.611825
0.079415 0.234091 1.619001
0.088775 0.235354 1.627737
0.098308 0.236802 1.637751
0.107981 0.238317 1.648228
0.118527 0.241375 1.669380
0.130914 0.247476 1.711574
-0.099441 0.225512 1.502642
-0.090580 0.223989 1.492494
-0.082174 0.223401 1.488578
-0.073853 0.222939 1.485499
-0.065695 0.222916 1.485345
-0.057811 0.223948 1.492224
-0.050653 0.228593 1.523174
-0.043650 0.235917 1.571972
-0.035153 0.236787 1.577769
-0.026439 0.236280 1.574393
-0.017799 0.236259 1.574252
-0.009164 0.236340 1.574796
-0.000524 0.236676 1.577032
0.008137 0.236891 1.578461
0.016821 0.237215 1.580625
0.025527 0.237522 1.582668
0.034287 0.238048 1.586173
0.043104 0.238674 1.590342
0.052040 0.239640 1.596781
0.060945 0.240204 1.600537
0.069922 0.240874 1.605002
0.079016 0.241754 1.610867
0.088550 0.243666 1.623608
0.097938 0.244862 1.631580
0.107715 0.246753 1.644175
0.118029 0.249482 1.662364
0.132089 0.259173 1.726938
-0.110175 0.239161 1.537377
-0.099342 0.233524 1.501144
-0.090502 0.231979 1.491214
-0.082015 0.231119 1.485687
-0.073745 0.230751 1.483317
-0.065614 0.230782 1.483517
-0.058104 0.233310 1.499767
-0.051702 0.241859 1.554724
-0.043699 0.244818 1.573746
-0.035080 0.244929 1.574457
-0.026398 0.244541 1.571961
-0.017767 0.244463 1.571463
-0.009153 0.244689 1.572915
-0.000523 0.244899 1.574268
0.008118 0.244968 1.574709
0.016787 0.245379 1.577351
0.025472 0.245675 1.579253
0.034263 0.246575 1.585040
0.043054 0.247114 1.588506
0.051961 0.248025 1.594362
0.060786 0.248335 1.596352
0.069767 0.249129 1.601454
0.078875 0.250146 1.607995
0.088376 0.252077 1.620409
0.097725 0.253264 1.628038
0.107642 0.255601 1.643061
0.118261 0.259113 1.665637
-0.108798 0.244501 1.518157
-0.099112 0.241202 1.497672
-0.090330 0.239705 1.488376
-0.081707 0.238375 1.480122
-0.073610 0.238453 1.480607
-0.065737 0.239371 1.486303
-0.058647 0.243800 1.513805
-0.052273 0.253155 1.571890
-0.043702 0.253472 1.573858
-0.035005 0.253031 1.571123
-0.026385 0.253038 1.571168
-0.017725 0.252480 1.567699
-0.009133 0.252774 1.569525
-0.000522 0.253138 1.571788
0.008107 0.253260 1.572544
0.016753 0.253523 1.574176
0.025450 0.254117 1.577866
0.034142 0.254368 1.579422
0.043035 0.255718 1.587808
0.051878 0.256362 1.591803
0.060763 0.256999 1.595762
0.069762 0.257896 1.601328
0.078858 0.258912 1.607641
0.088149 0.260299 1.616251
0.097625 0.261928 1.626364
0.107564 0.264424 1.641867
0.118658 0.269153 1.671230
0.132237 0.278435 1.728864
-0.108036 0.251061 1.507528
-0.098962 0.249042 1.495404
-0.090113 0.247276 1.484800
-0.081868 0.246983 1.483038
-0.073775 0.247130 1.483926
-0.065780 0.247687 1.487269
-0.059021 0.253712 1.523445
-0.052343 0.262133 1.574013
-0.043688 0.262023 1.573348
-0.035006 0.261658 1.571160
-0.026377 0.261582 1.570704
-0.017712 0.260891 1.566555
-0.009107 0.260635 1.565017
-0.000520 0.260854 1.566332
0.008093 0.261436 1.569828
0.016740 0.261961 1.572981
0.025396 0.262214 1.574496
0.034086 0.262606 1.576853
0.042900 0.263601 1.582823
0.051689 0.264131 1.586006
0.060612 0.265096 1.591800
0.069618 0.266131 1.598019
0.078764 0.267413 1.605714
0.088117 0.269069 1.615662
0.097500 0.270508 1.624297
0.107449 0.273140 1.640103
0.118658 0.278323 1.671227
-0.117781 0.262618 1.526623
-0.107479 0.257996 1.499756
-0.098721 0.256622 1.491770
-0.090054 0.255257 1.483831
-0.081815 0.254954 1.482073
-0.073807 0.255385 1.484576
-0.065804 0.255942 1.487813
-0.059004 0.261994 1.522998
-0.052313 0.270613 1.573098
-0.043629 0.270290 1.571224
-0.034972 0.270017 1.569633
-0.026327 0.269690 1.567732
-0.017704 0.269372 1.565887
-0.009097 0.268940 1.563372
-0.000518 0.268644 1.561653
0.008065 0.269122 1.564432
0.016700 0.269944 1.569209
0.025300 0.269837 1.568588
0.033960 0.270259 1.571040
0.042757 0.271377 1.577541
0.051615 0.272442 1.583731
0.060435 0.273030 1.587150
0.069603 0.274842 1.597681
0.078835 0.276473 1.607167
0.087989 0.277532 1.613319
0.097641 0.279824 1.626646
0.107715 0.282838 1.644165
0.118999 0.288321 1.676037
-0.116560 0.268184 1.510790
-0.107238 0.265627 1.496385
-0.098757 0.264902 1.492303
-0.090218 0.263878 1.486531
-0.081805 0.263055 1.481898
-0.073690 0.263113 1.482223
-0.065769 0.263966 1.487026
-0.058849 0.269642 1.519006
-0.052220 0.278748 1.570303
-0.043608 0.278780 1.570482
-0.034959 0.278524 1.569039
-0.026314 0.278153 1.566952
-0.017697 0.277846 1.565217
-0.009089 0.277265 1.561950
-0.000518 0.277133 1.561202
0.008047 0.277107 1.561057
0.016614 0.277113 1.561093
0.025230 0.277665 1.564202
0.033860 0.278058 1.566414
0.042603 0.279022 1.571843
0.051478 0.280386 1.579527
0.060352 0.281353 1.584978
0.069408 0.282813 1.593200
0.078528 0.284183 1.600918
0.088195 0.287054 1.617090
0.097771 0.289133 1.628805
0.107736 0.291918 1.644494
0.118663 0.296677 1.671305
-0.126899 0.281011 1.535585
-0.115546 0.274069 1.497650
-0.106986 0.273194 1.492869
-0.098619 0.272709 1.490217
-0.089860 0.270955 1.480633
-0.081706 0.270857 1.480096
-0.073614 0.270967 1.480697
-0.065810 0.272291 1.487934
-0.058713 0.277336 1.515501
-0.052121 0.286823 1.567342
-0.043503 0.286705 1.566700
-0.034878 0.286471 1.565417
-0.026280 0.286375 1.564892
-0.017673 0.286049 1.563113
-0.009093 0.285946 1.562549
-0.000518 0.285598 1.560651
0.008043 0.285527 1.560261
0.016601 0.285471 1.559955
0.025144 0.285280 1.558912
0.033799 0.286137 1.563595
0.042590 0.287561 1.571377
0.051448 0.288883 1.578598
0.060306 0.289825 1.583746
0.069144 0.290450 1.587160
0.078421 0.292566 1.598727
0.088224 0.296024 1.617621
0.098347 0.299826 1.638400
0.108223 0.302302 1.651929
0.119471 0.307928 1.682672
-0.124786 0.284619 1.510023
-0.115289 0.281658 1.494313
-0.106879 0.281105 1.491376
-0.098226 0.279768 1.484285
-0.089714 0.278625 1.478222
-0.081682 0.278897 1.479663
-0.073508 0.278689 1.478563
-0.065676 0.279885 1.484908
-0.058608 0.285142 1.512796
-0.052045 0.294992 1.565057
-0.043525 0.295446 1.567461
-0.034877 0.295051 1.565370
-0.026250 0.294632 1.563143
-0.017673 0.294631 1.563141
-0.009092 0.294500 1.562443
-0.000518 0.294245 1.561093
0.008032 0.293687 1.558131
0.016584 0.293718 1.558295
0.025144 0.293828 1.558879
0.033792 0.294648 1.563230
0.042492 0.295502 1.567759
0.051333 0.296884 1.575092
0.060193 0.297959 1.580797
0.069219 0.299481 1.588872
0.078689 0.302367 1.604185
0.088449 0.305680 1.621760
0.098913 0.310594 1.647828
0.108626 0.312526 1.658081
-0.123788 0.290562 1.497947
-0.115019 0.289179 1.490816
-0.106495 0.288250 1.486025
-0.098143 0.287670 1.483035
-0.089710 0.286725 1.478166
-0.081641 0.286871 1.478914
-0.073573 0.287055 1.479866
-0.065517 0.287335 1.481309
-0.058600 0.293399 1.512569
-0.052030 0.303489 1.564586
-0.043425 0.303353 1.563884
-0.034819 0.303133 1.562751
-0.026220 0.302859 1.561337
-0.017648 0.302779 1.560926
-0.009074 0.302487 1.559422
-0.000518 0.302434 1.559147
0.008026 0.301987 1.556842
0.016554 0.301722 1.555476
0.025137 0.302301 1.558465
0.033763 0.302967 1.561898
0.042435 0.303700 1.565676
0.051171 0.304561 1.570116
0.060110 0.306211 1.578623
0.069150 0.307893 1.587293
0.078827 0.311718 1.607012
0.088823 0.315906 1.628601
0.099617 0.321912 1.659564
0.110487 0.327133 1.686480
-0.134742 0.304971 1.528978
-0.123554 0.298216 1.495109
-0.114962 0.297213 1.490084
-0.106353 0.296008 1.484040
-0.098009 0.295404 1.481011
-0.089646 0.294625 1.477108
-0.081606 0.294860 1.478285
-0.073466 0.294746 1.477715
-0.065552 0.295624 1.482116
-0.058581 0.301602 1.512087
-0.051934 0.311502 1.561719
-0.043345 0.311357 1.560992
-0.034762 0.311200 1.560203
-0.026199 0.311180 1.560105
-0.017632 0.311059 1.559501
-0.009061 0.310579 1.557094
-0.000516 0.310247 1.555429
0.008019 0.310283 1.555610
0.016546 0.310115 1.554767
0.025114 0.310573 1.557063
0.033726 0.311199 1.560199
0.042326 0.311484 1.561631
0.051090 0.312678 1.567614
0.060099 0.314812 1.578313
0.069244 0.317032 1.589442
0.078857 0.320655 1.607610
0.089099 0.325855 1.633679
0.100099 0.332619 1.667590
-0.132784 0.308806 1.506751
-0.122873 0.304732 1.486873
-0.114576 0.304364 1.485077
-0.106084 0.303383 1.480295
-0.097705 0.302587 1.476409
-0.089602 0.302583 1.476391
-0.081629 0.303057 1.478700
-0.073431 0.302712 1.477019
-0.065485 0.303445 1.480594
-0.058766 0.310876 1.516854
-0.051966 0.320269 1.562683
-0.043389 0.320246 1.562571
-0.034708 0.319260 1.557760
-0.026154 0.319183 1.557383
-0.017607 0.319157 1.557258
-0.009045 0.318580 1.554444
-0.000516 0.318720 1.555128
0.008009 0.318424 1.553684
0.016543 0.318593 1.554507
0.025117 0.319149 1.557220
0.033703 0.319538 1.559117
0.042298 0.319840 1.560589
0.051067 0.321135 1.566910
0.060044 0.323179 1.576884
0.069172 0.325414 1.587788
0.078840 0.329409 1.607280
0.089242 0.335354 1.636286
0.100581 0.343414 1.675615
-0.131949 0.315081 1.497283
-0.122799 0.312702 1.485978
-0.114178 0.311426 1.479913
-0.105782 0.310617 1.476070
-0.097718 0.310730 1.476608
-0.089557 0.310527 1.475641
-0.081474 0.310579 1.475890
-0.073419 0.310765 1.476774
-0.065623 0.312225 1.483710
-0.059311 0.322164 1.530940
-0.051874 0.328260 1.559911
-0.043294 0.328101 1.559153
-0.034697 0.327708 1.557287
-0.026127 0.327392 1.555788
-0.017583 0.327252 1.555121
-0.009033 0.326643 1.552229
-0.000516 0.327006 1.553951
0.008000 0.326570 1.551878
0.016510 0.326461 1.551363
0.025102 0.327500 1.556299
0.033689 0.327959 1.558481
0.042274 0.328219 1.559716
0.051017 0.329413 1.565388
0.059969 0.331414 1.574899
0.069101 0.333785 1.586165
0.079032 0.339052 1.611197
0.090220 0.348106 1.654221
-0.131728 0.322754 1.494770
-0.123029 0.321457 1.488764
-0.114467 0.320356 1.483666
-0.105898 0.319068 1.477697
-0.097894 0.319408 1.479275
-0.089739 0.319273 1.478648
-0.081557 0.319004 1.477403
-0.073463 0.319060 1.477659
-0.065851 0.321480 1.488869
-0.059609 0.332224 1.538629
-0.051732 0.335898 1.555643
-0.043172 0.335705 1.554751
-0.034608 0.335387 1.553278
-0.026085 0.335390 1.553290
-0.017563 0.335409 1.553378
-0.009036 0.335300 1.552873
-0.000515 0.335152 1.552187
0.007993 0.334767 1.550405
0.016501 0.334795 1.550535
0.025013 0.334850 1.550790
0.033611 0.335731 1.554870
0.042253 0.336609 1.558934
0.050998 0.337873 1.564791
0.059697 0.338518 1.567777
0.069005 0.342012 1.583959
0.079101 0.348193 1.612585
0.090512 0.358340 1.659577
-0.131874 0.331325 1.496435
-0.123170 0.330004 1.490470
-0.114651 0.329024 1.486045
-0.106222 0.328175 1.482212
-0.098094 0.328194 1.482296
-0.089768 0.327492 1.479124
-0.081716 0.327747 1.480276
-0.073512 0.327386 1.478648
-0.066216 0.331476 1.497117
-0.060034 0.343093 1.549586
-0.051746 0.344526 1.556058
-0.043169 0.344212 1.554642
-0.034587 0.343709 1.552370
-0.026023 0.343101 1.549623
-0.017535 0.343388 1.550918
-0.009030 0.343581 1.551791
-0.000514 0.342924 1.548824
0.007980 0.342727 1.547932
0.016505 0.343380 1.550883
0.025011 0.343322 1.550623
0.033546 0.343604 1.551893
0.042213 0.344835 1.557454
0.050900 0.345793 1.561783
0.059818 0.347821 1.570939
0.069044 0.350902 1.584857
0.079356 0.358194 1.617791
0.090984 0.369363 1.668234
-0.131911 0.339630 1.496851
-0.123218 0.338313 1.491045
-0.114791 0.337590 1.487858
-0.106608 0.337531 1.487598
-0.098298 0.337024 1.485366
-0.089890 0.336061 1.481121
-0.082052 0.337251 1.486366
-0.073645 0.336105 1.481315
-0.066361 0.340436 1.500404
-0.060212 0.352640 1.554188
-0.051648 0.352391 1.553094
-0.043116 0.352310 1.552734
-0.034560 0.351948 1.551140
-0.026035 0.351758 1.550304
-0.017512 0.351442 1.548908
-0.009003 0.351046 1.547163
-0.000514 0.351345 1.548480
0.007970 0.350782 1.546001
0.016479 0.351329 1.548413
0.025001 0.351691 1.550006
0.033540 0.352050 1.551588
0.042194 0.353224 1.556762
0.050886 0.354265 1.561352
0.059780 0.356216 1.569951
0.069094 0.359860 1.586009
0.079717 0.368739 1.625144
0.092209 0.383611 1.690688
-0.132022 0.348135 1.498103
-0.123706 0.347867 1.496954
-0.114834 0.345885 1.488423
-0.106852 0.346485 1.491004
-0.098655 0.346432 1.490775
-0.090162 0.345232 1.485614
-0.082361 0.346707 1.491962
-0.073765 0.344794 1.483729
-0.066221 0.347930 1.497225
-0.059992 0.359846 1.548501
-0.051631 0.360794 1.552582
-0.043042 0.360214 1.550086
-0.034507 0.359907 1.548761
-0.025955 0.359168 1.545585
-0.017495 0.359590 1.547397
-0.009003 0.359537 1.547171
-0.000514 0.359506 1.547036
0.007973 0.359419 1.546665
0.016463 0.359496 1.546994
0.025012 0.360362 1.550723
0.033541 0.360572 1.551623
0.042129 0.361208 1.554361
0.050859 0.362646 1.560548
0.059842 0.365206 1.571567
0.069156 0.368891 1.587422
0.079545 0.376844 1.621646
0.091728 0.390840 1.681875
-0.132169 0.356752 1.499774
-0.124156 0.357375 1.502391
-0.115160 0.355056 1.492643
-0.106794 0.354473 1.490193
-0.098876 0.355404 1.494108
-0.090395 0.354297 1.489453
-0.082642 0.356104 1.497049
-0.074308 0.355531 1.494640
-0.066844 0.359498 1.511317
-0.059978 0.368261 1.548158
-0.051583 0.368974 1.551155
-0.043037 0.368676 1.549902
-0.034502 0.368348 1.548522
-0.025982 0.368022 1.547153
-0.017503 0.368235 1.548048
-0.008998 0.367836 1.546369
-0.000513 0.367489 1.544910
0.007970 0.367774 1.546109
0.016463 0.367972 1.546940
0.025016 0.368929 1.550965
0.033534 0.369014 1.551321
0.042215 0.370495 1.557550
0.050931 0.371728 1.562732
0.059879 0.374061 1.572541
0.069259 0.378161 1.589778
0.079563 0.385829 1.622013
0.091546 0.399274 1.678532
-0.133558 0.368818 1.515539
-0.124821 0.367579 1.510449
-0.115668 0.364850 1.499231
-0.107411 0.364747 1.498812
-0.099693 0.366605 1.506446
-0.090915 0.364554 1.498018
-0.084143 0.370936 1.524241
-0.076986 0.376844 1.548519
-0.068521 0.377018 1.549235
-0.060048 0.377191 1.549946
-0.051466 0.376629 1.547634
-0.042932 0.376257 1.546105
-0.034421 0.375960 1.544886
-0.025950 0.376049 1.545252
-0.017485 0.376342 1.546457
-0.008988 0.375870 1.544516
-0.000513 0.375839 1.544387
0.007962 0.375858 1.544468
0.016452 0.376215 1.545936
0.025019 0.377490 1.551175
0.033538 0.377572 1.551508
0.042236 0.379232 1.558331
0.050924 0.380254 1.562532
0.059783 0.382076 1.570016
0.069381 0.387570 1.592595
0.079942 0.396612 1.629747
-0.127433 0.383730 1.542045
-0.109807 0.381291 1.532244
-0.094852 0.388918 1.562894
-0.086520 0.390016 1.567307
-0.077788 0.389356 1.564655
-0.068921 0.387768 1.558273
-0.060158 0.386402 1.552783
-0.051407 0.384677 1.545852
-0.042851 0.384023 1.543222
-0.034364 0.383808 1.542359
-0.025940 0.384385 1.544678
-0.017454 0.384148 1.543725
-0.008974 0.383771 1.542212
-0.000512 0.383867 1.542596
0.007964 0.384448 1.544931
0.016437 0.384335 1.544477
0.024971 0.385247 1.548142
0.033525 0.385930 1.550886
0.042187 0.387327 1.556500
0.050973 0.389204 1.564042
0.059952 0.391797 1.574464
0.069541 0.397222 1.596264
0.080035 0.406023 1.631632
-0.099893 0.418618 1.645951
-0.087307 0.402240 1.581555
-0.077756 0.397777 1.564006
-0.068810 0.395685 1.555782
-0.060055 0.394247 1.550128
-0.051423 0.393285 1.546345
-0.042868 0.392641 1.543814
-0.034371 0.392341 1.542634
-0.025889 0.392080 1.541608
-0.017424 0.391962 1.541143
-0.008965 0.391848 1.540695
-0.000512 0.392630 1.543771
0.007965 0.392983 1.545156
0.016436 0.392802 1.544445
0.024942 0.393292 1.546372
0.033543 0.394656 1.551735
0.042282 0.396765 1.560027
0.051080 0.398622 1.567331
0.060151 0.401765 1.579689
0.069701 0.406917 1.599944
0.081029 0.420131 1.651900
0.094052 0.438593 1.724492
-0.103057 0.441193 1.698078
-0.087571 0.412160 1.586335
-0.077768 0.406421 1.564247
-0.068860 0.404512 1.556899
-0.060028 0.402575 1.549442
-0.051342 0.401137 1.543909
-0.042873 0.401161 1.544002
-0.034351 0.400572 1.541735
-0.025845 0.399870 1.539032
-0.017403 0.399933 1.539275
-0.008970 0.400506 1.541479
-0.000512 0.400590 1.541803
0.007941 0.400221 1.540384
0.016432 0.401164 1.544013
0.024972 0.402256 1.548215
0.033542 0.403161 1.551700
0.042250 0.405011 1.558820
0.051139 0.407689 1.569125
0.060228 0.410959 1.581712
0.070015 0.417567 1.607145
0.080765 0.427796 1.646515
-0.088344 0.424579 1.600337
-0.077947 0.415958 1.567841
-0.068921 0.413424 1.558291
-0.060054 0.411253 1.550108
-0.051421 0.410237 1.546279
-0.042880 0.409702 1.544262
-0.034283 0.408230 1.538713
-0.025832 0.408102 1.538230
-0.017393 0.408128 1.538330
-0.008971 0.408995 1.541594
-0.000512 0.409130 1.542106
0.007958 0.409550 1.543687
0.016463 0.410406 1.546913
0.025031 0.411724 1.551883
0.033602 0.412405 1.554450
0.042278 0.413843 1.559867
0.051139 0.416302 1.569139
0.060528 0.421724 1.589575
0.070405 0.428760 1.616095
0.080813 0.437091 1.647497
-0.108693 0.484976 1.790944
-0.088780 0.435501 1.608240
-0.077915 0.424390 1.567211
-0.068914 0.421930 1.558127
-0.060005 0.419420 1.548856
-0.051367 0.418279 1.544642
-0.042841 0.417789 1.542832
-0.034317 0.417083 1.540226
-0.025844 0.416741 1.538965
-0.017396 0.416654 1.538641
-0.008958 0.416849 1.539364
-0.000512 0.417336 1.541161
0.007963 0.418276 1.544632
0.016446 0.418480 1.545386
0.025015 0.419975 1.550907
0.033569 0.420528 1.552948
0.042398 0.423603 1.564304
0.051189 0.425328 1.570673
0.060521 0.430396 1.589391
0.070306 0.437015 1.613832
0.081055 0.447465 1.652424
-0.109682 0.499304 1.807238
-0.089630 0.448578 1.623633
-0.078205 0.434597 1.573030
-0.068839 0.430011 1.556430
-0.060039 0.428160 1.549730
-0.051318 0.426352 1.543185
-0.042740 0.425257 1.539223
-0.034224 0.424377 1.536038
-0.025788 0.424251 1.535583
-0.017409 0.425417 1.539802
-0.008959 0.425379 1.539665
-0.000512 0.426150 1.542455
0.007951 0.426135 1.542400
0.016422 0.426315 1.543052
0.025015 0.428491 1.550926
0.033642 0.429985 1.556336
0.042350 0.431691 1.562509
0.051287 0.434770 1.573656
0.060581 0.439558 1.590984
0.070386 0.446372 1.615648
0.081335 0.458114 1.658148
-0.078274 0.443622 1.574424
-0.068790 0.438240 1.555326
-0.059913 0.435743 1.546464
-0.051349 0.435081 1.544112
-0.042739 0.433688 1.539168
-0.034228 0.432864 1.536245
-0.025808 0.433020 1.536798
-0.017373 0.432953 1.536560
-0.008951 0.433404 1.538160
-0.000511 0.433908 1.539950
0.007951 0.434586 1.542358
0.016448 0.435484 1.545545
0.025009 0.436880 1.550499
0.033604 0.438024 1.554558
0.042379 0.440572 1.563599
0.051317 0.443665 1.574578
0.060533 0.447930 1.589715
0.070292 0.454634 1.613506
0.081355 0.467323 1.658541
-0.078610 0.454202 1.581181
-0.068823 0.446986 1.556063
-0.059979 0.444718 1.548167
-0.051300 0.443131 1.542640
-0.042747 0.442220 1.539469
-0.034234 0.441362 1.536485
-0.025827 0.441773 1.537913
-0.017369 0.441295 1.536252
-0.008955 0.442054 1.538894
-0.000511 0.442385 1.540046
0.007949 0.442933 1.541951
0.016473 0.444644 1.547907
0.025058 0.446266 1.553556
0.033689 0.447677 1.558466
0.042494 0.450368 1.567837
0.051319 0.452327 1.574656
0.060381 0.455508 1.585730
0.070054 0.461917 1.608041
0.081121 0.475052 1.653765
-0.078625 0.462963 1.581474
-0.068844 0.455662 1.556533
-0.060032 0.453614 1.549535
-0.051288 0.451486 1.542267
-0.042722 0.450398 1.538551
-0.034231 0.449756 1.536358
-0.025761 0.449074 1.534026
-0.017342 0.449020 1.533844
-0.008943 0.449904 1.536861
-0.000510 0.449846 1.536665
0.007942 0.450999 1.540604
0.016454 0.452599 1.546069
0.025047 0.454592 1.552877
0.033686 0.456188 1.558331
0.042498 0.459014 1.567981
0.051404 0.461728 1.577254
0.060534 0.465382 1.589734
0.070220 0.471858 1.611858
0.081351 0.485503 1.658469
-0.079369 0.476106 1.596445
-0.069206 0.466645 1.564720
-0.060076 0.462455 1.550670
-0.051367 0.460665 1.544671
-0.042775 0.459413 1.540472
-0.034226 0.458124 1.536149
-0.025768 0.457607 1.534415
-0.017324 0.456971 1.532283
-0.008942 0.458261 1.536608
-0.000511 0.458993 1.539062
0.007953 0.460073 1.542684
0.016433 0.460516 1.544171
0.025007 0.462367 1.550375
0.033717 0.465169 1.559771
0.042415 0.466701 1.564910
0.051391 0.470265 1.576860
0.060619 0.474776 1.591986
0.070298 0.481230 1.613628
0.081703 0.496742 1.665640
-0.079435 0.485271 1.597780
-0.069309 0.475941 1.567058
-0.060212 0.472031 1.554186
-0.051462 0.470006 1.547519
-0.042775 0.467867 1.540476
-0.034233 0.466652 1.536474
-0.025790 0.466418 1.535705
-0.017355 0.466211 1.535023
-0.008945 0.466846 1.537113
-0.000511 0.467479 1.539199
0.007954 0.468640 1.543020
0.016469 0.470010 1.547530
0.025028 0.471271 1.551684
0.033775 0.474548 1.562472
0.042587 0.477217 1.571260
0.051463 0.479588 1.579068
0.060520 0.482721 1.589384
0.070357 0.490499 1.614991
0.081747 0.506154 1.666538
-0.079819 0.496425 1.605497
-0.069471 0.485671 1.570718
-0.060178 0.480289 1.553311
-0.051431 0.478208 1.546583
-0.042776 0.476328 1.540502
-0.034270 0.475597 1.538138
-0.025811 0.475238 1.536977
-0.017379 0.475280 1.537112
-0.008959 0.476038 1.539564
-0.000511 0.476023 1.539514
0.007953 0.477044 1.542819
0.016472 0.478578 1.547779
0.025043 0.480079 1.552633
0.033711 0.482205 1.559510
0.042531 0.485200 1.569195
0.051452 0.488150 1.578736
0.060545 0.491645 1.590038
0.070565 0.500835 1.619760
-0.080204 0.507673 1.613248
-0.069636 0.495462 1.574443
-0.060404 0.490646 1.559141
-0.051581 0.488111 1.551084
-0.042842 0.485525 1.542868
-0.034291 0.484332 1.539075
-0.025792 0.483310 1.535829
-0.017402 0.484359 1.539162
-0.008956 0.484304 1.538987
-0.000511 0.484068 1.538238
0.007941 0.484770 1.540468
0.016457 0.486636 1.546398
0.025013 0.488018 1.550790
0.033755 0.491400 1.561536
0.042517 0.493652 1.568691
0.051385 0.496160 1.576663
0.060652 0.501249 1.592833
0.070856 0.511830 1.626456
-0.080482 0.518316 1.618841
-0.069583 0.503721 1.573257
-0.060454 0.499619 1.560443
-0.051582 0.496635 1.551126
-0.042808 0.493599 1.541643
-0.034241 0.492048 1.536798
-0.025789 0.491690 1.535679
-0.017365 0.491766 1.535917
-0.008926 0.491126 1.533919
-0.000511 0.492602 1.538528
0.007947 0.493582 1.541588
0.016480 0.495810 1.548548
0.025029 0.496850 1.551797
0.033705 0.499236 1.559248
0.042530 0.502414 1.569174
0.051487 0.505814 1.579794
0.060847 0.511636 1.597978
0.071224 0.523454 1.634887
-0.081281 0.532433 1.634912
-0.069893 0.514635 1.580263
-0.060453 0.508173 1.560420
-0.051555 0.504883 1.550317
-0.042795 0.501909 1.541185
-0.034241 0.500491 1.536832
-0.025802 0.500363 1.536437
-0.017351 0.499770 1.534617
-0.008927 0.499602 1.534100
-0.000510 0.500574 1.537084
0.007951 0.502314 1.542428
0.016495 0.504779 1.549998
0.025081 0.506399 1.554971
0.033792 0.509097 1.563255
0.042544 0.511185 1.569667
0.051412 0.513733 1.577492
0.060826 0.520218 1.597404
0.071434 0.533999 1.639721
-0.070274 0.526154 1.588862
-0.060705 0.518886 1.566913
-0.051564 0.513477 1.550580
-0.042832 0.510812 1.542532
-0.034339 0.510373 1.541208
-0.025814 0.509028 1.537145
-0.017359 0.508421 1.535312
-0.008943 0.508905 1.536773
-0.000511 0.509457 1.538440
0.007965 0.511680 1.545153
0.016521 0.514066 1.552358
0.025156 0.516487 1.559669
0.033821 0.518112 1.564576
0.042521 0.519520 1.568827
0.051626 0.524564 1.584061
0.061138 0.531702 1.605615
0.071713 0.545117 1.646124
-0.070378 0.535666 1.591221
-0.060840 0.528656 1.570395
-0.051721 0.523570 1.555289
-0.042923 0.520381 1.545814
-0.034341 0.518865 1.541312
-0.025860 0.518399 1.539926
-0.017401 0.518098 1.539034
-0.008955 0.518066 1.538936
-0.000511 0.518566 1.540424
0.007963 0.519977 1.544614
0.016507 0.522170 1.551128
0.025146 0.524831 1.559034
0.033766 0.525843 1.562039
0.042579 0.528850 1.570973
0.051646 0.533463 1.584675
0.061267 0.541652 1.609002
0.072472 0.560013 1.663542
-0.070364 0.544289 1.590903
-0.060857 0.537428 1.570850
-0.051750 0.532411 1.556186
-0.042940 0.529071 1.546421
-0.034348 0.527422 1.541604
-0.025863 0.526908 1.540099
-0.017411 0.526851 1.539933
-0.008957 0.526595 1.539185
-0.000512 0.527817 1.542757
0.007970 0.528965 1.546112
0.016533 0.531515 1.553566
0.025161 0.533694 1.559935
0.033801 0.534964 1.563649
0.042610 0.537864 1.572124
0.051717 0.542906 1.586860
0.061443 0.552057 1.613608
0.072591 0.570075 1.666273
-0.070426 0.553510 1.592316
-0.060848 0.545959 1.570596
-0.051937 0.542903 1.561803
-0.043093 0.539469 1.551923
-0.034409 0.536846 1.544379
-0.025886 0.535827 1.541448
-0.017440 0.536210 1.542548
-0.008969 0.535766 1.541273
-0.000512 0.535843 1.541492
0.007980 0.538125 1.548057
0.016546 0.540435 1.554702
0.025145 0.541919 1.558973
0.033789 0.543363 1.563128
0.042612 0.546509 1.572177
0.051745 0.551911 1.587718
0.061582 0.562182 1.617263
0.072380 0.577536 1.661435
-0.070773 0.565011 1.600144
-0.061005 0.556011 1.574656
-0.052034 0.552497 1.564705
-0.043287 0.550451 1.558910
-0.034529 0.547209 1.549727
-0.025965 0.545946 1.546151
-0.017483 0.546016 1.546350
-0.008993 0.545699 1.545450
-0.000512 0.544822 1.542968
0.007990 0.547299 1.549983
0.016559 0.549404 1.555945
0.025120 0.549912 1.557383
0.033749 0.551290 1.561285
0.042547 0.554290 1.569781
0.051772 0.560915 1.588546
0.061535 0.570626 1.616046
0.072297 0.585977 1.659521
-0.070713 0.573306 1.598791
-0.061154 0.566034 1.578511
-0.052172 0.562572 1.568858
-0.043395 0.560402 1.562806
-0.034623 0.557231 1.553962
-0.026059 0.556448 1.551778
-0.017515 0.555496 1.549123
-0.008996 0.554371 1.545986
-0.000513 0.554284 1.545744
0.007972 0.554559 1.546510
0.016488 0.555565 1.549317
0.025111 0.558255 1.556820
0.033678 0.558671 1.557979
0.042446 0.561575 1.566078
0.051614 0.567894 1.583699
0.061359 0.577831 1.611410
0.072154 0.593907 1.656242
-0.071270 0.586667 1.611395
-0.061312 0.576176 1.582579
-0.052168 0.571139 1.568743
-0.043349 0.568369 1.561136
-0.034689 0.566845 1.556948
-0.026159 0.567122 1.557710
-0.017574 0.565904 1.554364
-0.009028 0.564828 1.551408
-0.000514 0.564137 1.549510
0.007972 0.563024 1.546454
0.016511 0.564853 1.551477
0.025084 0.566196 1.555167
0.033651 0.566766 1.556732
0.042460 0.570357 1.566596
0.051601 0.576436 1.583292
0.061274 0.585861 1.609180
0.071910 0.600953 1.650632
-0.061723 0.588778 1.593181
-0.052227 0.580407 1.570530
-0.043324 0.576606 1.560244
-0.034706 0.575670 1.557713
-0.026124 0.574891 1.555603
-0.017574 0.574434 1.554368
-0.009045 0.574416 1.554320
-0.000514 0.572638 1.549506
0.007959 0.570571 1.543913
0.016491 0.572658 1.549562
0.025048 0.573900 1.552922
0.033614 0.574681 1.555035
0.042318 0.577009 1.561335
0.051498 0.583959 1.580140
0.060966 0.591698 1.601082
0.070995 0.602248 1.629629
-0.062904 0.608954 1.623668
-0.052478 0.591853 1.578070
-0.043316 0.585059 1.559957
-0.034604 0.582488 1.553102
-0.026045 0.581678 1.550942
-0.017566 0.582707 1.553685
-0.009045 0.582943 1.554314
-0.000514 0.581253 1.549807
0.007981 0.580616 1.548109
0.016479 0.580727 1.548404
0.025006 0.581460 1.550361
0.033524 0.581637 1.550832
0.042176 0.583616 1.556108
0.051257 0.589859 1.572755
0.060717 0.598035 1.594555
0.070540 0.607276 1.619194
-0.052593 0.601820 1.581509
-0.043338 0.593913 1.560729
-0.034583 0.590660 1.552180
-0.026057 0.590444 1.551612
-0.017553 0.590800 1.552547
-0.009028 0.590350 1.551367
-0.000515 0.590135 1.550802
0.007986 0.589520 1.549185
0.016470 0.588936 1.547651
0.025004 0.589923 1.550244
0.033510 0.589904 1.550195
0.042155 0.591863 1.555342
0.051124 0.596931 1.568660
0.060538 0.604995 1.589851
0.070365 0.614634 1.615182
-0.052583 0.610382 1.581208
-0.043307 0.602053 1.559632
-0.034596 0.599394 1.552743
-0.026055 0.598921 1.551517
-0.017532 0.598580 1.550634
-0.009022 0.598506 1.550443
-0.000514 0.597699 1.548351
0.007971 0.596912 1.546313
0.016451 0.596707 1.545782
0.024940 0.596884 1.546242
0.033441 0.597184 1.547019
0.042137 0.600137 1.554668
0.051144 0.605782 1.569291
0.060432 0.612640 1.587057
0.069922 0.619572 1.605015
-0.052440 0.617376 1.576910
-0.043275 0.610154 1.558465
-0.034526 0.606694 1.549627
-0.026017 0.606551 1.549261
-0.017513 0.606443 1.548987
-0.009013 0.606395 1.548863
-0.000514 0.605921 1.547652
0.007978 0.605906 1.547613
0.016463 0.605651 1.546963
0.024946 0.605524 1.546639
0.033419 0.605281 1.546018
0.042023 0.607024 1.550471
0.050879 0.611206 1.561150
0.060111 0.618051 1.578636
0.069615 0.625621 1.597970
-0.043254 0.618415 1.557732
-0.034600 0.616513 1.552941
-0.026052 0.615876 1.551336
-0.017524 0.615319 1.549933
-0.009024 0.615619 1.550690
-0.000513 0.613859 1.546256
0.007981 0.614621 1.548175
0.016474 0.614551 1.547999
0.024962 0.614386 1.547585
0.033392 0.613251 1.544726
0.041943 0.614362 1.547522
0.050686 0.617419 1.555224
0.059846 0.623950 1.571674
0.069307 0.631580 1.590895
0.079643 0.644580 1.623641
-0.043558 0.631357 1.568652
-0.034662 0.626157 1.555731
-0.026024 0.623718 1.549671
-0.017491 0.622654 1.547028
-0.009021 0.623918 1.550168
-0.000514 0.623166 1.548299
0.007972 0.622411 1.546425
0.016460 0.622495 1.546634
0.024903 0.621421 1.543965
0.033336 0.620690 1.542149
0.041885 0.621978 1.545349
0.050637 0.625352 1.553731
0.059638 0.630377 1.566215
0.068688 0.634589 1.576680
0.078299 0.642461 1.596239
-0.044013 0.646659 1.585060
-0.034823 0.637627 1.562922
-0.026046 0.632754 1.550977
-0.017460 0.630019 1.544273
-0.008987 0.630102 1.544476
-0.000513 0.630096 1.544462
0.007963 0.630147 1.544586
0.016410 0.629091 1.542000
0.024890 0.629564 1.543158
0.033321 0.628879 1.541479
0.041828 0.629602 1.543252
0.050554 0.632834 1.551174
0.059364 0.636038 1.559027
0.068396 0.640509 1.569985
0.077695 0.646196 1.583925
-0.045089 0.671371 1.623795
-0.034987 0.649263 1.570323
-0.026076 0.642007 1.552774
-0.017464 0.638642 1.544636
-0.008978 0.637909 1.542861
-0.000512 0.638080 1.543275
0.007953 0.637821 1.542650
0.016410 0.637530 1.541945
0.024870 0.637517 1.541914
0.033296 0.636843 1.540285
0.041812 0.637835 1.542682
0.050395 0.639336 1.546314
0.059080 0.641501 1.551549
0.068001 0.645375 1.560918
0.077192 0.650647 1.573670
0.087936 0.666638 1.612346
-0.035349 0.664685 1.586568
-0.026088 0.650823 1.553481
-0.017459 0.646935 1.544198
-0.008975 0.646132 1.542283
-0.000512 0.645532 1.540851
0.007945 0.645651 1.541134
0.016382 0.644904 1.539350
0.024817 0.644586 1.538593
0.033232 0.644068 1.537356
0.041809 0.646255 1.542576
0.050385 0.647682 1.545983
0.058935 0.648426 1.547759
0.067668 0.650732 1.553262
0.076745 0.655464 1.564558
0.086777 0.666579 1.591089
-0.026240 0.663181 1.562512
-0.017445 0.654899 1.542999
-0.008955 0.653169 1.538923
-0.000511 0.653617 1.539978
0.007935 0.653341 1.539330
0.016359 0.652432 1.537187
0.024811 0.652871 1.538221
0.033225 0.652361 1.537019
0.041715 0.653249 1.539112
0.050205 0.653823 1.540465
0.058709 0.654395 1.541811
0.067455 0.657185 1.548385
0.076425 0.661284 1.558043
0.085915 0.668602 1.575286
0.096796 0.684421 1.612556
-0.041303 0.796969 1.853764
-0.026721 0.684087 1.591197
-0.017485 0.664873 1.546505
-0.008959 0.661878 1.539540
-0.000510 0.661086 1.537697
0.007932 0.661485 1.538625
0.016342 0.660175 1.535577
0.024760 0.659960 1.535079
0.033173 0.659768 1.534631
0.041644 0.660558 1.536468
0.050130 0.661285 1.538159
0.058641 0.662091 1.540035
0.067334 0.664481 1.545594
0.076042 0.666478 1.550238
0.085412 0.673280 1.566061
0.095149 0.681476 1.585124
-0.041734 0.815579 1.873144
-0.017618 0.678492 1.558296
-0.008960 0.670433 1.539785
-0.000510 0.668633 1.535651
0.007927 0.669557 1.537775
0.016341 0.668562 1.535488
0.024741 0.667889 1.533942
0.033161 0.667944 1.534069
0.041552 0.667512 1.533078
0.050021 0.668267 1.534812
0.058575 0.669785 1.538298
0.067019 0.669816 1.538369
0.075874 0.673489 1.546804
0.085074 0.679182 1.559879
0.094553 0.685850 1.575194
0.107351 0.713463 1.638614
-0.041828 0.827706 1.877336
-0.031133 0.817366 1.853885
-0.017906 0.698252 1.583720
-0.008996 0.681607 1.545967
-0.000511 0.679087 1.540250
0.007930 0.678177 1.538187
0.016311 0.675759 1.532702
0.024704 0.675274 1.531602
0.033086 0.674820 1.530573
0.041506 0.675171 1.531370
0.049941 0.675614 1.532374
0.058446 0.676730 1.534905
0.066858 0.676632 1.534682
0.075543 0.679002 1.540057
0.084484 0.682968 1.549052
0.094235 0.692156 1.569892
0.105204 0.708004 1.605838
-0.031475 0.836642 1.874277
-0.009013 0.691406 1.548916
-0.000511 0.687341 1.539808
0.007904 0.684443 1.533316
0.016276 0.682686 1.529379
0.024651 0.682225 1.528347
0.033034 0.682160 1.528202
0.041384 0.681577 1.526897
0.049817 0.682322 1.528564
0.058224 0.682554 1.529085
0.066629 0.682704 1.529420
0.075316 0.685384 1.535425
0.084157 0.688791 1.543056
0.093600 0.696049 1.559315
0.103929 0.708128 1.586377
-0.031655 0.851755 1.884965
-0.009135 0.709328 1.569768
-0.000511 0.695059 1.538190
0.007898 0.692276 1.532031
0.016251 0.690008 1.527012
0.024571 0.688356 1.523357
0.032959 0.688969 1.524714
0.041324 0.688952 1.524675
0.049627 0.688080 1.522745
0.058039 0.688745 1.524217
0.066460 0.689342 1.525539
0.074989 0.690801 1.528767
0.084140 0.697119 1.542748
0.093259 0.702037 1.553633
0.103291 0.712435 1.576645
0.114371 0.727892 1.610852
-0.031496 0.857781 1.875524
-0.020733 0.838700 1.833805
-0.000513 0.707353 1.546616
0.007890 0.699976 1.530486
0.016213 0.696764 1.523465
0.024510 0.694982 1.519567
0.032861 0.695267 1.520191
0.041179 0.694864 1.519310
0.049520 0.694932 1.519458
0.057912 0.695589 1.520896
0.066325 0.696291 1.522430
0.074837 0.697775 1.525675
0.083620 0.701225 1.533217
0.092598 0.705530 1.542632
0.102670 0.716748 1.567159
0.113818 0.733165 1.603055
-0.031725 0.874366 1.889123
-0.020958 0.857970 1.853699
-0.000519 0.723887 1.564003
0.007887 0.708074 1.529839
0.016193 0.704235 1.521544
0.024498 0.703000 1.518876
0.032789 0.702055 1.516835
0.041142 0.702572 1.517950
0.049419 0.701831 1.516350
0.057758 0.702059 1.516843
0.065983 0.701016 1.514590
