# .PCD v0.7 - Point Cloud Data file format
VERSION 0.7
FIELDS x y z
SIZE 4 4 4
TYPE F F F
COUNT 1 1 1
WIDTH 1708
HEIGHT 1
VIEWPOINT 0 0 0 1 0 0 0
POINTS 1708
DATA ascii
-0.134698 0.179067 1.528475
-0.127502 0.180756 1.542887
-0.121263 0.184137 1.571752
-0.330421 0.184351 1.503168
-0.315429 0.180491 1.471700
-0.304723 0.178947 1.459105
-0.295316 0.178102 1.452220
-0.285877 0.177190 1.444784
-0.276986 0.176577 1.439780
-0.268525 0.176209 1.436780
-0.259817 0.175651 1.432236
-0.249804 0.174150 1.419993
-0.228908 0.164720 1.343101
-0.213717 0.158904 1.295685
-0.205320 0.157914 1.287612
-0.197165 0.157047 1.280535
-0.189850 0.156808 1.278592
-0.183011 0.156960 1.279829
-0.175908 0.156888 1.279239
-0.169095 0.157080 1.280805
-0.162881 0.157868 1.287236
-0.156748 0.158811 1.294922
-0.154686 0.164163 1.338563
-0.160005 0.178273 1.453614
-0.155033 0.181795 1.482330
-0.148827 0.184181 1.501785
-0.141656 0.185583 1.513215
-0.134360 0.186983 1.524637
-0.127875 0.189776 1.547404
-0.122452 0.194652 1.587167
-0.328128 0.191262 1.492739
-0.315120 0.188382 1.470263
-0.304679 0.186926 1.458894
-0.295360 0.186098 1.452435
-0.285609 0.184944 1.443430
-0.277018 0.184498 1.439948
-0.268474 0.184057 1.436508
-0.259857 0.183539 1.432457
-0.251127 0.182905 1.427509
-0.239908 0.180359 1.407642
-0.217563 0.169002 1.319003
-0.205705 0.165289 1.290025
-0.197369 0.164242 1.281858
-0.189826 0.163803 1.278430
-0.182913 0.163895 1.279142
-0.175771 0.163780 1.278245
-0.169403 0.164407 1.283139
-0.162798 0.164848 1.286582
-0.156220 0.165358 1.290561
-0.150618 0.166998 1.303361
-0.151595 0.176459 1.377206
-0.154594 0.189391 1.478133
-0.148654 0.192198 1.500038
-0.142031 0.194399 1.517220
-0.135247 0.196639 1.534699
-0.128969 0.199961 1.560632
-0.341540 0.202549 1.515909
-0.326589 0.198517 1.485734
-0.314889 0.196306 1.469184
-0.304238 0.194649 1.456783
-0.294979 0.193817 1.450561
-0.285641 0.192886 1.443592
-0.276580 0.192095 1.437668
-0.268181 0.191730 1.434940
-0.259591 0.191203 1.430991
-0.251307 0.190874 1.428534
-0.242398 0.190035 1.422250
-0.227244 0.184081 1.377694
-0.207517 0.173886 1.301389
-0.198248 0.172039 1.287565
-0.190179 0.171135 1.280802
-0.182914 0.170914 1.279150
-0.175860 0.170880 1.278894
-0.169025 0.171064 1.280272
-0.162280 0.171360 1.282486
-0.155832 0.172011 1.287354
-0.149485 0.172839 1.293554
-0.145528 0.176652 1.322094
-0.148561 0.200303 1.499099
-0.142442 0.203310 1.521604
-0.136365 0.206755 1.547391
-0.130459 0.210935 1.578670
-0.338665 0.209092 1.503149
-0.325696 0.206105 1.481674
-0.313657 0.203567 1.463433
-0.303763 0.202326 1.454512
-0.294877 0.201707 1.450059
-0.285949 0.201024 1.445150
-0.276732 0.200093 1.438458
-0.267709 0.199252 1.432412
-0.259575 0.199042 1.430903
-0.251158 0.198595 1.427685
-0.242887 0.198238 1.425121
-0.233076 0.196559 1.413049
-0.213011 0.185819 1.335842
-0.199102 0.179876 1.293116
-0.190581 0.178540 1.283514
-0.183145 0.178157 1.280759
-0.175886 0.177924 1.279082
-0.168860 0.177916 1.279027
-0.162061 0.178156 1.280751
-0.155552 0.178753 1.285043
-0.148850 0.179172 1.288058
-0.142961 0.180663 1.298774
-0.149058 0.209226 1.504115
-0.142736 0.212097 1.524752
-0.136831 0.215981 1.552675
-0.131811 0.221873 1.595027
-0.353700 0.221592 1.532560
-0.335661 0.215412 1.489816
-0.323582 0.212844 1.472056
-0.313249 0.211323 1.461532
-0.303594 0.210190 1.453699
-0.294654 0.209505 1.448961
-0.285496 0.208623 1.442861
-0.276918 0.208127 1.439428
-0.267899 0.207259 1.433428
-0.259710 0.207002 1.431647
-0.251011 0.206308 1.426853
-0.243118 0.206254 1.426476
-0.234597 0.205646 1.422274
-0.222202 0.201483 1.393480
-0.201410 0.189138 1.308104
-0.191539 0.186516 1.289964
-0.183417 0.185460 1.282667
-0.175984 0.185045 1.279795
-0.168675 0.184731 1.277623
-0.161724 0.184799 1.278092
-0.155316 0.185521 1.283086
-0.148676 0.186022 1.286553
-0.142095 0.186651 1.290899
-0.137619 0.190256 1.315834
-0.143690 0.221937 1.534940
-0.137502 0.225602 1.560292
-0.347100 0.225710 1.503960
-0.333502 0.222149 1.480232
-0.322245 0.220009 1.465975
-0.312179 0.218593 1.456539
-0.302991 0.217734 1.450815
-0.294358 0.217238 1.447509
-0.285373 0.216447 1.442242
-0.276520 0.215714 1.437358
-0.267895 0.215121 1.433407
-0.259677 0.214829 1.431461
-0.251145 0.214252 1.427612
-0.242787 0.213790 1.424535
-0.234434 0.213302 1.421284
-0.225322 0.212066 1.413047
-0.209129 0.203840 1.358237
-0.192793 0.194861 1.298410
-0.183780 0.192880 1.285205
-0.175981 0.192065 1.279774
-0.168535 0.191583 1.276564
-0.161823 0.191930 1.278877
-0.155259 0.192491 1.282616
-0.148343 0.192650 1.283677
-0.141833 0.193377 1.288521
-0.135782 0.194840 1.298270
-0.133071 0.201522 1.342794
-0.143122 0.229448 1.528868
-0.137144 0.233555 1.556233
-0.344097 0.231938 1.490951
-0.331913 0.229174 1.473180
-0.321307 0.227389 1.461707
-0.311507 0.226097 1.453403
-0.302552 0.225367 1.448709
-0.293750 0.224715 1.444519
-0.284677 0.223813 1.438723
-0.276121 0.223278 1.435281
-0.267500 0.222658 1.431293
-0.258913 0.222029 1.427252
-0.250459 0.221479 1.423714
-0.242703 0.221530 1.424042
-0.234652 0.221306 1.422602
-0.225909 0.220392 1.416727
-0.216102 0.218337 1.403522
-0.197819 0.207252 1.332261
-0.184906 0.201156 1.293075
-0.176269 0.199412 1.281865
-0.168444 0.198479 1.275870
-0.161562 0.198626 1.276811
-0.154844 0.198996 1.279188
-0.147997 0.199227 1.280678
-0.141334 0.199743 1.283990
-0.134930 0.200696 1.290118
-0.129670 0.203552 1.308476
-0.358357 0.244263 1.516679
-0.341810 0.238523 1.481038
-0.330675 0.236372 1.467686
-0.321017 0.235197 1.460386
-0.311341 0.233947 1.452628
-0.302442 0.233231 1.448182
-0.293239 0.232236 1.442005
-0.284962 0.231940 1.440163
-0.275855 0.230932 1.433903
-0.267025 0.230102 1.428753
-0.258752 0.229718 1.426367
-0.250330 0.229172 1.422980
-0.242352 0.229012 1.421986
-0.234387 0.228854 1.421001
-0.225912 0.228169 1.416749
-0.217617 0.227623 1.413361
-0.206638 0.224127 1.391650
-0.188049 0.211791 1.315056
-0.176957 0.207252 1.286870
-0.168593 0.205662 1.277001
-0.161380 0.205401 1.275376
-0.154528 0.205594 1.276577
-0.148005 0.206267 1.280752
-0.140994 0.206290 1.280896
-0.134349 0.206881 1.284569
-0.128355 0.208594 1.295204
-0.124519 0.214223 1.330153
-0.354611 0.249944 1.500822
-0.340690 0.245842 1.476187
-0.330054 0.243967 1.464932
-0.320692 0.242964 1.458908
-0.310920 0.241591 1.450664
-0.302070 0.240882 1.446404
-0.293023 0.239972 1.440941
-0.284077 0.239097 1.435688
-0.275903 0.238841 1.434150
-0.266949 0.237874 1.428347
-0.258514 0.237326 1.425054
-0.250588 0.237225 1.424447
-0.242159 0.236626 1.420851
-0.234287 0.236550 1.420394
-0.225727 0.235749 1.415586
-0.217665 0.235431 1.413677
-0.209006 0.234419 1.407600
-0.195418 0.227589 1.366590
-0.178471 0.216146 1.297879
-0.168787 0.212914 1.278467
-0.161216 0.212183 1.274079
-0.154420 0.212451 1.275687
-0.147570 0.212667 1.276989
-0.140901 0.213178 1.280053
-0.134168 0.213642 1.282840
-0.127922 0.214973 1.290835
-0.122560 0.218035 1.309221
-0.352719 0.256802 1.492815
-0.339587 0.253119 1.471408
-0.329426 0.251526 1.462144
-0.319656 0.250158 1.454196
-0.310411 0.249142 1.448288
-0.301432 0.248292 1.443347
-0.292165 0.247153 1.436725
-0.283181 0.246196 1.431162
-0.275265 0.246139 1.430831
-0.266803 0.245577 1.427565
-0.258222 0.244868 1.423442
-0.249990 0.244456 1.421046
-0.241758 0.244018 1.418500
-0.233765 0.243799 1.417227
-0.225879 0.243681 1.416539
-0.217713 0.243242 1.413988
-0.209504 0.242720 1.410955
-0.200253 0.240905 1.400403
-0.184304 0.230565 1.340295
-0.169494 0.220851 1.283826
-0.161249 0.219219 1.274341
-0.154417 0.219447 1.275667
-0.147313 0.219292 1.274763
-0.140680 0.219857 1.278049
-0.134016 0.220431 1.281385
-0.127567 0.221440 1.287255
-0.121950 0.224098 1.302702
-0.350875 0.263608 1.485012
-0.338763 0.260559 1.467837
-0.329195 0.259367 1.461118
-0.318909 0.257534 1.450796
-0.309515 0.256348 1.444111
-0.300321 0.255268 1.438027
-0.291650 0.254587 1.434190
-0.283254 0.254114 1.431528
-0.274901 0.253655 1.428943
-0.266402 0.253030 1.425419
-0.258116 0.252575 1.422858
-0.250023 0.252287 1.421237
-0.241881 0.251929 1.419218
-0.233680 0.251484 1.416712
-0.225628 0.251174 1.414966
-0.217560 0.250824 1.412994
-0.209400 0.250338 1.410254
-0.201250 0.249826 1.407374
-0.190739 0.246227 1.387097
-0.171472 0.230555 1.298810
-0.161649 0.226773 1.277502
-0.154427 0.226460 1.275744
-0.147241 0.226175 1.274138
-0.140549 0.226658 1.276860
-0.133871 0.227215 1.279993
-0.127280 0.227990 1.284359
-0.121023 0.229489 1.292805
-0.116772 0.235215 1.325063
-0.350181 0.271219 1.482074
-0.339047 0.268839 1.469068
-0.328799 0.267062 1.459361
-0.318905 0.265492 1.450780
-0.309428 0.264197 1.443703
-0.300046 0.262918 1.436711
-0.291199 0.262051 1.431974
-0.283051 0.261781 1.430503
-0.274557 0.261169 1.427155
-0.266302 0.260753 1.424885
-0.257575 0.259836 1.419875
-0.249791 0.259844 1.419914
-0.241611 0.259427 1.417636
-0.233426 0.258976 1.415173
-0.225163 0.258404 1.412049
-0.217346 0.258323 1.411604
-0.209303 0.257957 1.409603
-0.201346 0.257672 1.408045
-0.192719 0.256473 1.401493
-0.174715 0.242176 1.323370
-0.161899 0.234143 1.279471
-0.154554 0.233653 1.276796
-0.147309 0.233274 1.274724
-0.140565 0.233692 1.277007
-0.133725 0.233983 1.278598
-0.127175 0.234843 1.283298
-0.120585 0.235726 1.288125
-0.114522 0.237813 1.299530
-0.111019 0.245846 1.343425
-0.350096 0.279283 1.481712
-0.338235 0.276236 1.465549
-0.328473 0.274797 1.457912
-0.318821 0.273380 1.450396
-0.309368 0.272066 1.443425
-0.300004 0.270763 1.436510
-0.291352 0.270049 1.432724
-0.282534 0.269138 1.427889
-0.273976 0.268430 1.424133
-0.265797 0.268062 1.422181
-0.257661 0.267717 1.420350
-0.249741 0.267581 1.419630
-0.241581 0.267172 1.417460
-0.233434 0.266750 1.415222
-0.224990 0.265948 1.410966
-0.217141 0.265818 1.410273
-0.208962 0.265258 1.407302
-0.201100 0.265073 1.406322
-0.193024 0.264581 1.403713
-0.176819 0.252442 1.339308
-0.162196 0.241606 1.281820
-0.154430 0.240466 1.275770
-0.147175 0.240051 1.273570
-0.140309 0.240259 1.274673
-0.133629 0.240826 1.277684
-0.126731 0.241041 1.278822
-0.120059 0.241735 1.282504
-0.113613 0.243000 1.289216
-0.108617 0.247741 1.314366
-0.348997 0.286511 1.477062
-0.337630 0.283770 1.462929
-0.327304 0.281790 1.452724
-0.317636 0.280293 1.445007
-0.308793 0.279466 1.440741
-0.299818 0.278473 1.435620
-0.291033 0.277607 1.431158
-0.282302 0.276746 1.426718
-0.273889 0.276157 1.423680
-0.265918 0.275991 1.422829
-0.257804 0.275663 1.421137
-0.249206 0.274781 1.416591
-0.240710 0.273959 1.412349
-0.232867 0.273849 1.411782
-0.224737 0.273383 1.409381
-0.216654 0.272942 1.407110
-0.208802 0.272771 1.406225
-0.200933 0.272563 1.405155
-0.192736 0.271877 1.401616
-0.177861 0.261321 1.347198
-0.162289 0.248782 1.282555
-0.154062 0.246877 1.272732
-0.146982 0.246714 1.271892
-0.140134 0.246946 1.273090
-0.133139 0.246928 1.272997
-0.126363 0.247337 1.275105
-0.119681 0.247989 1.278467
-0.113052 0.248839 1.282849
-0.106942 0.251019 1.294087
-0.103311 0.259742 1.339060
-0.349696 0.295206 1.480019
-0.337496 0.291681 1.462345
-0.327299 0.289757 1.452701
-0.317444 0.288048 1.444131
-0.308048 0.286678 1.437266
-0.299223 0.285782 1.432770
-0.290256 0.284698 1.427338
-0.282235 0.284507 1.426380
-0.273667 0.283739 1.422529
-0.265570 0.283427 1.420966
-0.257167 0.282761 1.417627
-0.248806 0.282101 1.414320
-0.240447 0.281401 1.410808
-0.232343 0.280962 1.408607
-0.224335 0.280612 1.406855
-0.216287 0.280188 1.404724
-0.208562 0.280164 1.404606
-0.200564 0.279759 1.402577
-0.192467 0.279178 1.399663
-0.177337 0.267922 1.343230
-0.162141 0.255586 1.281384
-0.154008 0.253771 1.272285
-0.146827 0.253426 1.270555
-0.139868 0.253450 1.270674
-0.132899 0.253456 1.270706
-0.126052 0.253708 1.271966
-0.119267 0.254122 1.274047
-0.112370 0.254335 1.275114
-0.106048 0.255962 1.283268
-0.100338 0.259405 1.300531
-0.351713 0.305077 1.488559
-0.338371 0.300482 1.466140
-0.327313 0.297741 1.452763
-0.317401 0.295932 1.443935
-0.307903 0.294426 1.436587
-0.299231 0.293651 1.432809
-0.289912 0.292183 1.425643
-0.281765 0.291847 1.424005
-0.273146 0.290989 1.419821
-0.264975 0.290572 1.417783
-0.256786 0.290110 1.415529
-0.248452 0.289448 1.412302
-0.240015 0.288623 1.408273
-0.231686 0.287874 1.404621
-0.223654 0.287458 1.402589
-0.215977 0.287483 1.402713
-0.207898 0.286955 1.400135
-0.199997 0.286642 1.398608
-0.191941 0.286074 1.395838
-0.175932 0.273112 1.332592
-0.162093 0.262539 1.281004
-0.154175 0.261034 1.273662
-0.146870 0.260475 1.270931
-0.139866 0.260417 1.270650
-0.132886 0.260403 1.270582
-0.125924 0.260422 1.270675
-0.119075 0.260693 1.271994
-0.112394 0.261387 1.275380
-0.105702 0.262146 1.279084
-0.099270 0.263704 1.286685
-0.094091 0.269083 1.312933
-0.354245 0.315500 1.499274
-0.338092 0.308273 1.464930
-0.327095 0.305509 1.451795
-0.316985 0.303457 1.442046
-0.308217 0.302617 1.438055
-0.299272 0.301554 1.433003
-0.290156 0.300258 1.426845
-0.281456 0.299332 1.422445
-0.272529 0.298105 1.416614
-0.263880 0.297119 1.411927
-0.255872 0.296816 1.410486
-0.247564 0.296136 1.407256
-0.239513 0.295730 1.405328
-0.231299 0.295089 1.402279
-0.223286 0.294668 1.400280
-0.215380 0.294364 1.398834
-0.207495 0.294067 1.397425
-0.199671 0.293837 1.396330
-0.191547 0.293131 1.392974
-0.175335 0.279472 1.328067
-0.161546 0.268660 1.276689
-0.154154 0.267987 1.273491
-0.146844 0.267401 1.270704
-0.139739 0.267148 1.269501
-0.132731 0.267063 1.269097
-0.125668 0.266851 1.268091
-0.118825 0.267110 1.269324
-0.112022 0.267497 1.271162
-0.105339 0.268241 1.274698
-0.098648 0.269068 1.278628
-0.092917 0.272842 1.296560
-0.089743 0.285372 1.356102
-0.338187 0.316400 1.465341
-0.326261 0.312676 1.448094
-0.316634 0.311025 1.440448
-0.307819 0.310107 1.436196
-0.298889 0.309021 1.431170
-0.289780 0.307688 1.424993
-0.281001 0.306641 1.420146
-0.272183 0.305489 1.414812
-0.263835 0.304814 1.411683
-0.255003 0.303522 1.405700
-0.246930 0.303080 1.403654
-0.239141 0.302970 1.403145
-0.230934 0.302306 1.400067
-0.222902 0.301832 1.397872
-0.215224 0.301820 1.397819
-0.207471 0.301699 1.397260
-0.199604 0.301397 1.395861
-0.191293 0.300375 1.391124
-0.175192 0.286525 1.326983
-0.161328 0.275292 1.274961
-0.153921 0.274560 1.271568
-0.146585 0.273889 1.268461
-0.139572 0.273785 1.267981
-0.132473 0.273494 1.266632
-0.125279 0.272962 1.264168
-0.118396 0.273086 1.264742
-0.111640 0.273537 1.266829
-0.104987 0.274316 1.270439
-0.098438 0.275498 1.275911
-0.092073 0.277412 1.284779
-0.087961 0.286997 1.329170
-0.340837 0.326983 1.476824
-0.326611 0.320965 1.449647
-0.317363 0.319663 1.443763
-0.307879 0.318049 1.436474
-0.298219 0.316164 1.427964
-0.289042 0.314704 1.421366
-0.280148 0.313478 1.415832
-0.272162 0.313229 1.414703
-0.263036 0.311613 1.407407
-0.254745 0.310920 1.404275
-0.246432 0.310156 1.400824
-0.238336 0.309623 1.398417
-0.230558 0.309482 1.397783
-0.222475 0.308909 1.395193
-0.214687 0.308718 1.394331
-0.207096 0.308808 1.394737
-0.199117 0.308303 1.392459
-0.191192 0.307845 1.390388
-0.177129 0.297055 1.341653
-0.161379 0.282378 1.275368
-0.153591 0.280933 1.268838
-0.146345 0.280389 1.266382
-0.139344 0.280284 1.265908
-0.132275 0.280024 1.264732
-0.125182 0.279683 1.263194
-0.118391 0.280015 1.264693
-0.111749 0.280762 1.268066
-0.104806 0.280800 1.268241
-0.098253 0.281966 1.273506
-0.091682 0.283255 1.279325
-0.085789 0.287023 1.296345
-0.344266 0.338457 1.491681
-0.328604 0.330927 1.458493
-0.317852 0.328090 1.445990
-0.308009 0.326069 1.437084
-0.298136 0.323910 1.427568
-0.288764 0.322193 1.420001
-0.280602 0.321768 1.418128
-0.271814 0.320581 1.412894
-0.262709 0.318939 1.405661
-0.254099 0.317817 1.400713
-0.245983 0.317263 1.398273
-0.238015 0.316868 1.396533
-0.229972 0.316346 1.394230
-0.222173 0.316134 1.393298
-0.214383 0.315921 1.392358
-0.206872 0.316118 1.393226
-0.199183 0.316048 1.392917
-0.191280 0.315619 1.391027
-0.179390 0.308302 1.358779
-0.162032 0.290546 1.280522
-0.153640 0.287987 1.269246
-0.146343 0.287335 1.266371
-0.139260 0.287058 1.265148
-0.132375 0.287182 1.265694
-0.125337 0.286968 1.264754
-0.118361 0.286881 1.264369
-0.111702 0.287597 1.267525
-0.104751 0.287610 1.267583
-0.097956 0.288082 1.269661
-0.091353 0.289233 1.274737
-0.085057 0.291626 1.285283
-0.330427 0.340811 1.466588
-0.318675 0.336894 1.449734
-0.308520 0.334508 1.439466
-0.298594 0.332253 1.429760
-0.288866 0.330101 1.420499
-0.279277 0.327993 1.411430
-0.270930 0.327266 1.408300
-0.262301 0.326145 1.403477
-0.253532 0.324777 1.397589
-0.245522 0.324326 1.395648
-0.237166 0.323374 1.391552
-0.229695 0.323607 1.392554
-0.222078 0.323642 1.392706
-0.214292 0.323423 1.391766
-0.206707 0.323504 1.392114
-0.198874 0.323188 1.390754
-0.191165 0.323057 1.390190
-0.180706 0.318076 1.368752
-0.162801 0.298985 1.286601
-0.153452 0.294590 1.267689
-0.146185 0.293965 1.264997
-0.139132 0.293729 1.263985
-0.132191 0.293717 1.263932
-0.125329 0.293890 1.264675
-0.118267 0.293584 1.263358
-0.111301 0.293496 1.262981
-0.104572 0.294062 1.265417
-0.097864 0.294769 1.268461
-0.091354 0.296229 1.274741
-0.085157 0.299030 1.286794
-0.081163 0.310774 1.337332
-0.335699 0.354424 1.489987
-0.320472 0.346794 1.457908
-0.309085 0.343034 1.442103
-0.298637 0.340147 1.429966
-0.288744 0.337752 1.419900
-0.279097 0.335522 1.410524
-0.270554 0.334529 1.406347
-0.261699 0.333079 1.400255
-0.253385 0.332253 1.396780
-0.245250 0.331617 1.394104
-0.237217 0.331081 1.391851
-0.229241 0.330592 1.389799
-0.221626 0.330610 1.389872
-0.214054 0.330694 1.390225
-0.206550 0.330892 1.391058
-0.198958 0.330961 1.391348
-0.191243 0.330820 1.390758
-0.181745 0.327457 1.376618
-0.164620 0.309465 1.300979
-0.153549 0.301737 1.268494
-0.146015 0.300557 1.263532
-0.139110 0.300617 1.263785
-0.132164 0.300591 1.263673
-0.125319 0.300804 1.264569
-0.118331 0.300679 1.264044
-0.111258 0.300310 1.262494
-0.104800 0.301662 1.268177
-0.098014 0.302193 1.270409
-0.091199 0.302709 1.272578
-0.084831 0.304921 1.281878
-0.080279 0.314648 1.322769
-0.325052 0.359863 1.478741
-0.310593 0.352659 1.449139
-0.299106 0.348540 1.432212
-0.288523 0.345280 1.418815
-0.279230 0.343425 1.411193
-0.270637 0.342350 1.406778
-0.261528 0.340540 1.399338
-0.253337 0.339853 1.396517
-0.245507 0.339621 1.395564
-0.237473 0.339083 1.393354
-0.229322 0.338338 1.390289
-0.221471 0.337999 1.388899
-0.213935 0.338133 1.389448
-0.206301 0.338117 1.389382
-0.198697 0.338150 1.389518
-0.191071 0.338148 1.389510
-0.182840 0.337029 1.384912
-0.167993 0.323089 1.327631
-0.154089 0.309783 1.272954
-0.146407 0.308316 1.266923
-0.139687 0.308828 1.269027
-0.132189 0.307583 1.263912
-0.125395 0.307930 1.265338
-0.118591 0.308292 1.266827
-0.111582 0.308131 1.266164
-0.105101 0.309506 1.271816
-0.098197 0.309740 1.272778
-0.091295 0.310020 1.273925
-0.084696 0.311459 1.279839
-0.079884 0.320320 1.316251
-0.313956 0.364516 1.464831
-0.299836 0.357268 1.435707
-0.288939 0.353573 1.420859
-0.279172 0.351095 1.410900
-0.270050 0.349310 1.403724
-0.261267 0.347872 1.397946
-0.253061 0.347136 1.394991
-0.245182 0.346819 1.393717
-0.237123 0.346218 1.391302
-0.229211 0.345799 1.389617
-0.221149 0.345117 1.386877
-0.213454 0.344979 1.386323
-0.206087 0.345382 1.387940
-0.198570 0.345554 1.388632
-0.190973 0.345595 1.388799
-0.182847 0.344641 1.384965
-0.171518 0.337307 1.355491
-0.154640 0.317901 1.277505
-0.146642 0.315773 1.268955
-0.140513 0.317658 1.276532
-0.132715 0.315770 1.268942
-0.125662 0.315543 1.268033
-0.118889 0.316034 1.270004
-0.111669 0.315326 1.267157
-0.105197 0.316775 1.272981
-0.098575 0.317945 1.277683
-0.091356 0.317222 1.274779
-0.084676 0.318406 1.279537
-0.079664 0.326643 1.312638
-0.301861 0.367612 1.445401
-0.289645 0.362253 1.424331
-0.278880 0.358462 1.409426
-0.269866 0.356769 1.402769
-0.261051 0.355248 1.396789
-0.252770 0.354384 1.393391
-0.244786 0.353895 1.391468
-0.236589 0.353055 1.388167
-0.228887 0.352925 1.387653
-0.221033 0.352542 1.386151
-0.213326 0.352376 1.385495
-0.205770 0.352454 1.385803
-0.198208 0.352530 1.386101
-0.190579 0.352486 1.385930
-0.182912 0.352366 1.385459
-0.173169 0.348063 1.368538
-0.155943 0.327649 1.288273
-0.146862 0.323219 1.270855
-0.140705 0.325107 1.278277
-0.133191 0.323891 1.273497
-0.125845 0.322972 1.269883
-0.119356 0.324272 1.274994
-0.111861 0.322832 1.269334
-0.105198 0.323763 1.272993
-0.098813 0.325741 1.280770
-0.091435 0.324496 1.275874
-0.084702 0.325525 1.279921
-0.078624 0.329487 1.295500
-0.302556 0.376407 1.448728
-0.290111 0.370663 1.426621
-0.279253 0.366686 1.411311
-0.269610 0.364120 1.401437
-0.261012 0.362859 1.396582
-0.252751 0.362002 1.393284
-0.244089 0.360501 1.387506
-0.236230 0.360126 1.386065
-0.228667 0.360192 1.386319
-0.220924 0.359971 1.385469
-0.213422 0.360141 1.386121
-0.205631 0.359815 1.384868
-0.198008 0.359772 1.384703
-0.190351 0.359660 1.384269
-0.182507 0.359171 1.382388
-0.173471 0.356193 1.370927
-0.156801 0.336558 1.295355
-0.147828 0.332366 1.279221
-0.142189 0.335623 1.291756
-0.133671 0.332070 1.278082
-0.126479 0.331600 1.276274
-0.120179 0.333552 1.283786
-0.112102 0.330507 1.272065
-0.105240 0.330879 1.273497
-0.099070 0.333632 1.284095
-0.091558 0.331942 1.277589
-0.084683 0.332475 1.279640
-0.078274 0.335095 1.289723
-0.302328 0.384067 1.447638
-0.289880 0.378191 1.425488
-0.278742 0.373744 1.408729
-0.269551 0.371729 1.401132
-0.261055 0.370582 1.396808
-0.252501 0.369281 1.391904
-0.244175 0.368243 1.387994
-0.236079 0.367495 1.385174
-0.228366 0.367316 1.384497
-0.220670 0.367151 1.383875
-0.213194 0.367353 1.384640
-0.205420 0.367038 1.383450
-0.197961 0.367283 1.384374
-0.190428 0.367404 1.384832
-0.182707 0.367159 1.383906
-0.174463 0.365795 1.378766
-0.162626 0.356433 1.343477
-0.152480 0.350065 1.319475
-0.146683 0.353543 1.332584
-0.135131 0.342786 1.292039
-0.127275 0.340735 1.284307
-0.120926 0.342715 1.291772
-0.112993 0.340169 1.282176
-0.106109 0.340657 1.284016
-0.099789 0.343151 1.293417
-0.092140 0.341108 1.285714
-0.085057 0.340994 1.285286
-0.078940 0.345086 1.300708
-0.306989 0.398054 1.469955
-0.290913 0.387388 1.430565
-0.279570 0.382607 1.412911
-0.269658 0.379568 1.401689
-0.260821 0.377907 1.395556
-0.252147 0.376391 1.389956
-0.243962 0.375531 1.386779
-0.235784 0.374629 1.383448
-0.228345 0.374878 1.384369
-0.220586 0.374602 1.383350
-0.212844 0.374334 1.382361
-0.205191 0.374211 1.381906
-0.197627 0.374246 1.382037
-0.190106 0.374370 1.382492
-0.182467 0.374261 1.382092
-0.174898 0.374292 1.382206
-0.166824 0.373195 1.378155
-0.159062 0.372728 1.376432
-0.151361 0.372364 1.375085
-0.140845 0.364672 1.346681
-0.131410 0.359082 1.326039
-0.126221 0.365118 1.348326
-0.115442 0.354732 1.309975
-0.107467 0.352152 1.300445
-0.101183 0.355142 1.311486
-0.093303 0.352557 1.301941
-0.086438 0.353697 1.306150
-0.310296 0.410495 1.485790
-0.291366 0.395854 1.432796
-0.279042 0.389623 1.410246
-0.269034 0.386363 1.398444
-0.260565 0.385187 1.394187
-0.252293 0.384239 1.390758
-0.243945 0.383115 1.386688
-0.235844 0.382317 1.383800
-0.228224 0.382271 1.383635
-0.220279 0.381659 1.381420
-0.212640 0.381555 1.381041
-0.204985 0.381410 1.380518
-0.197335 0.381266 1.379996
-0.189783 0.381307 1.380145
-0.182228 0.381345 1.380282
-0.174772 0.381600 1.381205
-0.167168 0.381543 1.380998
-0.159563 0.381479 1.380767
-0.152324 0.382324 1.383826
-0.144726 0.382312 1.383783
-0.137265 0.382682 1.385121
-0.130276 0.384486 1.391651
-0.123095 0.385912 1.396814
-0.115663 0.386688 1.399621
-0.104576 0.374488 1.355462
-0.300837 0.405886 1.440498
-0.293169 0.406213 1.441659
-0.279467 0.397966 1.412391
-0.269580 0.394837 1.401285
-0.261287 0.393925 1.398051
-0.252545 0.392263 1.392150
-0.244011 0.390829 1.387063
-0.235940 0.390068 1.384360
-0.228075 0.389609 1.382730
-0.220217 0.389130 1.381032
-0.212724 0.389286 1.381584
-0.204867 0.388762 1.379727
-0.197066 0.388309 1.378117
-0.189368 0.388029 1.377126
-0.181961 0.388348 1.378258
-0.174375 0.388296 1.378072
-0.167164 0.389111 1.380966
-0.159780 0.389583 1.382639
-0.152272 0.389786 1.383360
-0.144743 0.389951 1.383945
-0.137715 0.391559 1.389653
-0.130853 0.393856 1.397806
-0.124529 0.398161 1.413083
-0.118593 0.404358 1.435075
-0.106705 0.389700 1.383053
-0.285541 0.403349 1.404150
-0.280521 0.407247 1.417720
-0.269805 0.402860 1.402451
-0.261397 0.401765 1.398638
-0.252467 0.399778 1.391721
-0.244101 0.398587 1.387573
-0.235758 0.397358 1.383295
-0.228053 0.397157 1.382595
-0.220098 0.396494 1.380287
-0.212420 0.396299 1.379607
-0.204643 0.395900 1.378218
-0.196914 0.395565 1.377052
-0.189225 0.395287 1.376086
-0.181779 0.395515 1.376878
-0.173965 0.394926 1.374827
-0.166704 0.395599 1.377171
-0.159485 0.396438 1.380093
-0.151947 0.396528 1.380406
-0.144567 0.397061 1.382260
-0.137612 0.398887 1.388618
-0.130739 0.401177 1.396589
-0.124395 0.405479 1.411566
-0.119310 0.414726 1.443757
-0.112013 0.417051 1.451851
-0.280697 0.415285 1.418605
-0.269790 0.410533 1.402373
-0.261204 0.409138 1.397606
-0.252649 0.407708 1.392723
-0.244168 0.406312 1.387954
-0.235873 0.405144 1.383965
-0.227920 0.404508 1.381793
-0.220099 0.404070 1.380295
-0.212454 0.403934 1.379831
-0.204426 0.403033 1.376754
-0.196737 0.402758 1.375813
-0.189266 0.402924 1.376381
-0.181744 0.402993 1.376616
-0.174074 0.402722 1.375690
-0.166649 0.403020 1.376709
-0.159158 0.403181 1.377258
-0.151813 0.403746 1.379190
-0.144603 0.404746 1.382604
-0.137597 0.406462 1.388465
-0.130793 0.409009 1.397167
-0.124624 0.413984 1.414162
-0.119329 0.422716 1.443989
-0.281020 0.423557 1.420240
-0.270671 0.419594 1.406952
-0.261197 0.416796 1.397572
-0.252666 0.415377 1.392814
-0.244191 0.413966 1.388083
-0.235742 0.412511 1.383201
-0.227620 0.411548 1.379973
-0.219540 0.410598 1.376789
-0.211983 0.410593 1.376770
-0.204206 0.410145 1.375270
-0.196420 0.409647 1.373599
-0.189007 0.409916 1.374501
-0.181581 0.410178 1.375381
-0.173976 0.410041 1.374920
-0.166468 0.410129 1.375214
-0.159071 0.410514 1.376508
-0.151608 0.410758 1.377323
-0.144326 0.411544 1.379961
-0.137352 0.413343 1.385992
-0.130824 0.416774 1.397497
-0.124694 0.421980 1.414953
-0.119283 0.430471 1.443425
-0.271613 0.428802 1.411851
-0.261485 0.424932 1.399111
-0.252938 0.423475 1.394313
-0.244542 0.422188 1.390076
-0.235819 0.420236 1.383649
-0.227648 0.419171 1.380141
-0.219598 0.418263 1.377150
-0.211922 0.418028 1.376376
-0.204151 0.417581 1.374906
-0.196472 0.417293 1.373960
-0.188854 0.417119 1.373385
-0.181420 0.417354 1.374160
-0.173824 0.417219 1.373715
-0.166409 0.417527 1.374728
-0.159030 0.417960 1.376155
-0.151538 0.418123 1.376691
-0.144346 0.419175 1.380155
-0.137277 0.420718 1.385234
-0.130514 0.423437 1.394188
-0.124464 0.428953 1.412349
-0.118570 0.435773 1.434803
-0.108965 0.428953 1.412348
-0.271716 0.436714 1.412385
-0.261829 0.433179 1.400952
-0.252813 0.430914 1.393628
-0.244448 0.429651 1.389542
-0.235975 0.428112 1.384566
-0.227733 0.426904 1.380659
-0.219953 0.426508 1.379377
-0.211989 0.425714 1.376810
-0.204160 0.425142 1.374962
-0.196508 0.424911 1.374212
-0.188804 0.424542 1.373020
-0.180920 0.423723 1.370372
-0.173533 0.424047 1.371417
-0.166160 0.424434 1.372671
-0.158760 0.424789 1.373819
-0.151513 0.425606 1.376460
-0.144344 0.426741 1.380131
-0.137330 0.428484 1.385768
-0.130369 0.430608 1.392638
-0.124365 0.436355 1.411224
-0.118564 0.443622 1.434727
-0.281856 0.448266 1.424467
-0.272908 0.446414 1.418583
-0.262519 0.442028 1.404644
-0.253073 0.439012 1.395061
-0.244028 0.436525 1.387158
-0.235794 0.435375 1.383503
-0.227748 0.434508 1.380748
-0.219851 0.433875 1.378738
-0.211797 0.432877 1.375566
-0.203881 0.432096 1.373085
-0.196228 0.431836 1.372257
-0.188582 0.431569 1.371410
-0.180735 0.430802 1.368971
-0.173503 0.431497 1.371180
-0.166075 0.431747 1.371974
-0.158554 0.431766 1.372034
-0.151300 0.432550 1.374526
-0.144165 0.433776 1.378424
-0.137203 0.435686 1.384493
-0.130329 0.438115 1.392210
-0.124309 0.443898 1.410587
-0.119087 0.453488 1.441062
-0.275096 0.457840 1.429957
-0.262730 0.450096 1.405772
-0.253485 0.447394 1.397332
-0.244510 0.445013 1.389896
-0.235688 0.442768 1.382885
-0.227635 0.441864 1.380061
-0.219503 0.440742 1.376557
-0.211741 0.440307 1.375198
-0.204064 0.440025 1.374318
-0.196331 0.439595 1.372972
-0.188478 0.438852 1.370653
-0.180915 0.438751 1.370337
-0.173363 0.438666 1.370070
-0.165934 0.438901 1.370806
-0.158577 0.439357 1.372231
-0.151255 0.439961 1.374116
-0.144227 0.441527 1.379009
-0.137196 0.443259 1.384417
-0.130435 0.446116 1.393342
-0.124349 0.451785 1.411045
-0.119254 0.462041 1.443079
-0.275622 0.466576 1.432688
-0.263145 0.458534 1.407995
-0.253728 0.455497 1.398671
-0.244734 0.453055 1.391170
-0.236215 0.451362 1.385972
-0.227887 0.449936 1.381594
-0.219464 0.448215 1.376309
-0.211546 0.447442 1.373935
-0.204297 0.448078 1.375888
-0.196216 0.446866 1.372168
-0.188404 0.446196 1.370110
-0.181154 0.446857 1.372140
-0.173094 0.445491 1.367946
-0.165736 0.445889 1.369168
-0.158296 0.446096 1.369802
-0.151097 0.447035 1.372686
-0.143952 0.448240 1.376387
-0.137106 0.450561 1.383513
-0.130508 0.454017 1.394125
-0.124040 0.458383 1.407533
-0.118978 0.468871 1.439736
-0.111959 0.472591 1.451161
-0.274955 0.473289 1.429222
-0.263034 0.466062 1.407397
-0.253849 0.463392 1.399336
-0.245253 0.461665 1.394120
-0.236463 0.459449 1.387427
-0.227845 0.457433 1.381340
-0.219650 0.456155 1.377480
-0.211573 0.455039 1.374110
-0.204136 0.455268 1.374804
-0.196118 0.454168 1.371482
-0.188352 0.453591 1.369739
-0.180835 0.453588 1.369729
-0.173094 0.452997 1.367945
-0.165647 0.453159 1.368433
-0.158105 0.453063 1.368145
-0.150852 0.453830 1.370461
-0.143752 0.455157 1.374469
-0.137098 0.458127 1.383436
-0.130408 0.461314 1.393060
-0.124175 0.466616 1.409070
-0.118744 0.475833 1.436905
-0.113061 0.485283 1.465441
-0.274795 0.480851 1.428388
-0.262943 0.473621 1.406912
-0.254178 0.471682 1.401153
-0.245336 0.469474 1.394592
-0.236414 0.466966 1.387144
-0.227842 0.465004 1.381316
-0.219413 0.463213 1.375994
-0.211419 0.462241 1.373106
-0.203685 0.461789 1.371765
-0.195859 0.461084 1.369672
-0.188230 0.460807 1.368847
-0.180682 0.460713 1.368568
-0.173091 0.460497 1.367926
-0.165703 0.460825 1.368901
-0.158375 0.461359 1.370487
-0.150889 0.461461 1.370790
-0.143971 0.463405 1.376564
-0.137250 0.466233 1.384967
-0.130497 0.469275 1.394003
-0.124309 0.474859 1.410590
-0.118942 0.484526 1.439305
-0.113035 0.493209 1.465100
-0.274693 0.488508 1.427859
-0.262614 0.480739 1.405154
-0.254496 0.479969 1.402902
-0.245205 0.476871 1.393847
-0.236438 0.474624 1.387281
-0.227929 0.472765 1.381846
-0.219519 0.470989 1.376655
-0.211296 0.469503 1.372310
-0.203710 0.469373 1.371932
-0.195798 0.468456 1.369250
-0.188014 0.467781 1.367278
-0.180684 0.468229 1.368587
-0.173368 0.468752 1.370116
-0.165686 0.468286 1.368755
-0.158208 0.468384 1.369039
-0.150798 0.468701 1.369966
-0.143945 0.470874 1.376317
-0.137139 0.473447 1.383840
-0.130245 0.476006 1.391320
-0.124345 0.482738 1.410997
-0.119037 0.492814 1.440446
-0.113801 0.504645 1.475028
-0.274964 0.496832 1.429269
-0.263290 0.489707 1.408770
-0.254289 0.487271 1.401762
-0.245100 0.484312 1.393252
-0.236432 0.482225 1.387246
-0.227948 0.480387 1.381961
-0.220011 0.479616 1.379740
-0.211438 0.477352 1.373229
-0.203743 0.476978 1.372152
-0.195812 0.476002 1.369346
-0.187890 0.474970 1.366376
-0.180629 0.475591 1.368163
-0.173089 0.475503 1.367908
-0.165676 0.475770 1.368678
-0.158286 0.476131 1.369717
-0.150775 0.476147 1.369762
-0.143685 0.477561 1.373830
-0.136767 0.479739 1.380095
-0.130293 0.483817 1.391827
-0.124592 0.491456 1.413803
-0.119135 0.501133 1.441640
-0.115085 0.518524 1.491670
-0.275818 0.506242 1.433706
-0.263602 0.498025 1.410436
-0.254170 0.494730 1.401104
-0.245072 0.491900 1.393090
-0.236591 0.490166 1.388180
-0.228229 0.488573 1.383667
-0.220006 0.487175 1.379708
-0.211614 0.485292 1.374375
-0.204058 0.485256 1.374275
-0.196350 0.484843 1.373105
-0.188060 0.482904 1.367612
-0.180386 0.482449 1.366323
-0.172870 0.482398 1.366179
-0.165414 0.482516 1.366515
-0.157751 0.482011 1.365082
-0.150844 0.483882 1.370382
-0.143942 0.485969 1.376292
-0.136801 0.487432 1.380436
-0.130403 0.491870 1.393005
-0.124470 0.498724 1.412416
-0.119267 0.509607 1.443237
-0.263498 0.505565 1.409881
-0.254499 0.503069 1.402919
-0.245524 0.500466 1.395661
-0.236875 0.498380 1.389845
-0.228438 0.496619 1.384933
-0.220155 0.495081 1.380642
-0.211843 0.493367 1.375863
-0.203871 0.492346 1.373015
-0.195960 0.491400 1.370379
-0.188063 0.490415 1.367631
-0.180490 0.490230 1.367115
-0.172858 0.489861 1.366086
-0.165314 0.489716 1.365682
-0.157740 0.489469 1.364993
-0.150604 0.490620 1.368203
-0.143665 0.492569 1.373637
-0.137022 0.495805 1.382662
-0.130470 0.499769 1.393716
-0.124888 0.508175 1.417160
-0.119216 0.517306 1.442623
-0.114048 0.530073 1.478227
-0.264883 0.515999 1.417291
-0.254934 0.511641 1.405320
-0.245494 0.508063 1.395492
-0.236905 0.506073 1.390026
-0.228449 0.504243 1.385000
-0.219927 0.502135 1.379211
-0.212003 0.501295 1.376903
-0.203926 0.500014 1.373385
-0.196069 0.499197 1.371140
-0.187986 0.497717 1.367075
-0.180529 0.497839 1.367411
-0.173036 0.497866 1.367486
-0.165395 0.497454 1.366354
-0.157905 0.497476 1.366415
-0.150567 0.498005 1.367867
-0.143781 0.500511 1.374750
-0.137292 0.504384 1.385389
-0.130699 0.508307 1.396163
-0.124946 0.516189 1.417813
-0.119094 0.524683 1.441142
-0.114033 0.538118 1.478044
-0.266649 0.527269 1.426742
-0.254999 0.519483 1.405674
-0.245363 0.515443 1.394744
-0.236974 0.513847 1.390425
-0.228750 0.512516 1.386821
-0.220261 0.510479 1.381310
-0.211978 0.508790 1.376741
-0.203998 0.507731 1.373875
-0.195808 0.506046 1.369314
-0.188314 0.506099 1.369459
-0.180566 0.505446 1.367691
-0.172657 0.504265 1.364495
-0.165308 0.504687 1.365638
-0.157850 0.504799 1.365941
-0.150712 0.505998 1.369186
-0.143838 0.508254 1.375290
-0.137087 0.511221 1.383319
-0.131012 0.517204 1.399507
-0.125433 0.526012 1.423342
-0.119364 0.533800 1.444414
-0.114236 0.547199 1.480673
-0.255728 0.528704 1.409694
-0.245733 0.523885 1.396846
-0.237476 0.522583 1.393374
-0.229375 0.521547 1.390612
-0.220612 0.518883 1.383510
-0.212422 0.517425 1.379622
-0.204076 0.515467 1.374401
-0.196272 0.514777 1.372560
-0.188448 0.513980 1.370436
-0.180416 0.512522 1.366550
-0.172773 0.512095 1.365409
-0.165432 0.512563 1.366657
-0.157959 0.512648 1.366884
-0.150729 0.513569 1.369340
-0.143713 0.515354 1.374100
-0.137081 0.518789 1.383259
-0.130869 0.524310 1.397980
-0.125238 0.532991 1.421125
-0.119610 0.542839 1.447383
-0.114745 0.557799 1.487270
-0.256945 0.538991 1.416402
-0.245559 0.531175 1.395861
-0.237298 0.529830 1.392328
-0.229583 0.529657 1.391872
-0.220614 0.526479 1.383521
-0.212347 0.524811 1.379138
-0.204085 0.523031 1.374459
-0.196320 0.522435 1.372894
-0.188432 0.521454 1.370315
-0.180357 0.519853 1.366109
-0.172850 0.519820 1.366021
-0.165480 0.520214 1.367058
-0.158124 0.520691 1.368311
-0.150877 0.521596 1.370689
-0.143665 0.522719 1.373641
-0.136857 0.525519 1.380997
-0.130568 0.530756 1.394760
-0.125236 0.540781 1.421104
-0.119113 0.548494 1.441373
-0.114803 0.566242 1.488013
-0.258533 0.550143 1.425156
-0.245871 0.539517 1.397631
-0.237619 0.538198 1.394214
-0.229319 0.536676 1.390272
-0.220900 0.534763 1.385314
-0.212218 0.532055 1.378299
-0.204066 0.530523 1.374331
-0.196348 0.530046 1.373095
-0.188553 0.529313 1.371196
-0.180742 0.528473 1.369020
-0.172860 0.527344 1.366096
-0.165333 0.527246 1.365842
-0.158087 0.528077 1.367994
-0.150823 0.528925 1.370191
-0.143580 0.529941 1.372823
-0.136708 0.532517 1.379495
-0.130554 0.538352 1.394614
-0.124784 0.546599 1.415976
-0.118858 0.555209 1.438281
-0.113972 0.570250 1.477244
-0.247098 0.549917 1.404606
-0.237297 0.545109 1.392324
-0.228694 0.542822 1.386483
-0.220498 0.541377 1.382794
-0.212639 0.540688 1.381034
-0.204556 0.539356 1.377630
-0.196433 0.537813 1.373689
-0.188484 0.536640 1.370693
-0.180672 0.535778 1.368492
-0.172964 0.535163 1.366921
-0.165567 0.535498 1.367777
-0.158212 0.536007 1.369076
-0.150894 0.536698 1.370841
-0.143778 0.538216 1.374720
-0.136905 0.540864 1.381483
-0.130933 0.547593 1.398669
-0.125084 0.555701 1.419380
-0.118791 0.562783 1.437469
-0.113602 0.576479 1.472452
-0.248068 0.559814 1.410121
-0.237561 0.553362 1.393871
-0.229315 0.551924 1.390247
-0.220907 0.549985 1.385363
-0.213055 0.549338 1.383734
-0.204780 0.547514 1.379139
-0.196488 0.545501 1.374069
-0.188534 0.544307 1.371060
-0.181023 0.544344 1.371153
-0.173200 0.543403 1.368783
-0.165594 0.543090 1.367996
-0.157956 0.542640 1.366863
-0.150904 0.544253 1.370926
-0.143660 0.545311 1.373589
-0.136949 0.548622 1.381930
-0.130875 0.555019 1.398043
-0.125345 0.564665 1.422342
-0.118624 0.569871 1.435455
-0.113274 0.582873 1.468206
-0.249073 0.569850 1.415832
-0.237729 0.561407 1.394856
-0.229362 0.559669 1.390537
-0.220821 0.557367 1.384818
-0.212892 0.556505 1.382677
-0.204702 0.554870 1.378614
-0.196350 0.552654 1.373109
-0.188878 0.552836 1.373561
-0.181148 0.552249 1.372102
-0.173266 0.551125 1.369310
-0.165775 0.551201 1.369497
-0.158239 0.551123 1.369303
-0.151153 0.552689 1.373196
-0.144139 0.554691 1.378168
-0.137141 0.556985 1.383869
-0.131155 0.563895 1.401036
-0.124985 0.570825 1.418256
-0.118018 0.574797 1.428125
-0.112665 0.587749 1.460303
-0.250023 0.579824 1.421237
-0.238463 0.570819 1.399166
-0.229581 0.567840 1.391862
-0.221204 0.565946 1.387220
-0.212752 0.563720 1.381765
-0.204782 0.562655 1.379155
-0.196684 0.561141 1.375442
-0.188869 0.560347 1.373498
-0.181062 0.559511 1.371449
-0.173218 0.558482 1.368926
-0.165941 0.559272 1.370861
-0.158768 0.560504 1.373882
-0.151485 0.561454 1.376211
-0.144457 0.563495 1.381214
-0.137476 0.565957 1.387248
-0.131189 0.571731 1.401401
-0.124705 0.577310 1.415075
-0.118396 0.584500 1.432700
-0.112292 0.593792 1.455477
-0.251696 0.591552 1.430743
-0.239006 0.579813 1.402349
-0.229673 0.575707 1.392419
-0.221169 0.573467 1.387002
-0.212786 0.571395 1.381989
-0.204960 0.570718 1.380351
-0.196821 0.569084 1.376400
-0.188883 0.567925 1.373598
-0.181322 0.567851 1.373419
-0.173580 0.567179 1.371792
-0.166087 0.567295 1.372074
-0.158846 0.568325 1.374564
-0.151590 0.569400 1.377165
-0.144741 0.572197 1.383930
-0.137461 0.573507 1.387099
-0.130754 0.577501 1.396758
-0.124573 0.584455 1.413577
-0.118575 0.593256 1.434864
-0.254487 0.606051 1.446610
-0.239608 0.588988 1.405883
-0.229502 0.582912 1.391379
-0.220985 0.580594 1.385846
-0.213044 0.579679 1.383662
-0.205031 0.578491 1.380827
-0.197211 0.577778 1.379125
-0.189129 0.576211 1.375385
-0.181172 0.574910 1.372278
-0.173539 0.574569 1.371464
-0.166490 0.576217 1.375400
-0.159350 0.577693 1.378923
-0.152188 0.579233 1.382598
-0.144684 0.579563 1.383385
-0.137342 0.580612 1.385889
-0.130552 0.584261 1.394598
-0.124463 0.591693 1.412339
-0.118839 0.602467 1.438057
-0.111774 0.606953 1.448765
-0.240474 0.598859 1.410964
-0.229533 0.590627 1.391570
-0.221024 0.588304 1.386095
-0.212632 0.586136 1.380988
-0.204595 0.584822 1.377893
-0.197045 0.584855 1.377971
-0.189401 0.584598 1.377364
-0.181277 0.582777 1.373073
-0.173693 0.582610 1.372681
-0.166757 0.584700 1.377604
-0.159609 0.586212 1.381166
-0.152209 0.586898 1.382782
-0.144658 0.587048 1.383137
-0.137373 0.588351 1.386207
-0.130418 0.591303 1.393162
-0.124475 0.599496 1.412465
-0.118990 0.611131 1.439878
-0.110107 0.605731 1.427156
-0.242283 0.611165 1.421580
-0.229833 0.599044 1.393387
-0.220967 0.595755 1.385737
-0.212557 0.593503 1.380497
-0.204345 0.591658 1.376207
-0.196760 0.591557 1.375971
-0.189398 0.592146 1.377342
-0.181496 0.591026 1.374736
-0.173723 0.590243 1.372915
-0.166952 0.592951 1.379213
-0.159685 0.594072 1.381822
-0.152040 0.593826 1.381250
-0.144421 0.593662 1.380869
-0.137479 0.596418 1.387277
-0.130152 0.597727 1.390322
-0.124122 0.605527 1.408467
-0.118479 0.616375 1.433699
-0.110391 0.615146 1.430839
-0.280536 0.694335 1.594682
-0.244762 0.625298 1.436125
-0.229951 0.607003 1.394106
-0.220329 0.601616 1.381734
-0.212333 0.600445 1.379044
-0.204046 0.598333 1.374195
-0.196657 0.598796 1.375256
-0.189092 0.598736 1.375120
-0.181513 0.598625 1.374865
-0.173925 0.598472 1.374513
-0.167172 0.601310 1.381031
-0.159782 0.602019 1.382660
-0.152211 0.602083 1.382807
-0.144321 0.600824 1.379915
-0.136993 0.601892 1.382368
-0.129990 0.604603 1.388593
-0.124023 0.612765 1.407339
-0.118080 0.622141 1.428874
-0.299857 0.728778 1.652957
-0.282546 0.708124 1.606110
-0.247074 0.639160 1.449690
-0.230359 0.615743 1.396579
-0.220648 0.610082 1.383739
-0.212215 0.607675 1.378280
-0.203885 0.605396 1.373110
-0.196054 0.604483 1.371040
-0.188582 0.604644 1.371406
-0.181621 0.606529 1.375681
-0.173693 0.605206 1.372679
-0.166659 0.607020 1.376793
-0.159571 0.608803 1.380838
-0.152027 0.608934 1.381135
-0.144477 0.609052 1.381403
-0.136917 0.609142 1.381608
-0.130028 0.612401 1.388999
-0.123489 0.617814 1.401277
-0.116787 0.623080 1.413220
-0.110006 0.628645 1.425843
-0.298956 0.735632 1.647991
-0.282750 0.717454 1.607269
-0.253314 0.663456 1.486299
-0.230308 0.623267 1.396268
-0.220477 0.617193 1.382661
-0.211455 0.613035 1.373345
-0.203280 0.611111 1.369035
-0.195730 0.610992 1.368768
-0.188405 0.611596 1.370120
-0.181332 0.613101 1.373493
-0.173424 0.611788 1.370553
-0.166422 0.613702 1.374840
-0.159023 0.614260 1.376089
-0.151567 0.614644 1.376949
-0.144149 0.615231 1.378265
-0.137029 0.617228 1.382738
-0.129864 0.619239 1.387243
-0.123546 0.625794 1.401928
-0.117461 0.634479 1.421386
-0.297397 0.740789 1.639391
-0.282421 0.725429 1.605400
-0.253264 0.671480 1.486010
-0.230150 0.630497 1.395312
-0.220601 0.625134 1.383443
-0.211674 0.621213 1.374767
-0.203179 0.618318 1.368359
-0.195598 0.618086 1.367846
-0.188273 0.618680 1.369162
-0.180910 0.619194 1.370298
-0.173399 0.619222 1.370360
-0.166374 0.621066 1.374441
-0.159251 0.622702 1.378062
-0.151614 0.622393 1.377377
-0.143990 0.622109 1.376749
-0.136742 0.623505 1.379839
-0.129906 0.627055 1.387694
-0.124092 0.636285 1.408121
-0.118684 0.648963 1.436179
-0.105782 0.619556 1.371099
-0.309394 0.757131 1.655456
-0.295052 0.743874 1.626468
-0.280926 0.730351 1.596901
-0.228870 0.634602 1.387549
-0.220236 0.631676 1.381151
-0.211448 0.628084 1.373297
-0.202822 0.624725 1.365952
-0.195415 0.625007 1.366567
-0.188132 0.625723 1.368133
-0.180611 0.625676 1.368031
-0.173271 0.626279 1.369350
-0.166288 0.628284 1.373734
-0.159098 0.629660 1.376743
-0.151509 0.629514 1.376422
-0.144035 0.629861 1.377182
-0.136669 0.630737 1.379097
-0.130097 0.635602 1.389733
-0.124030 0.643691 1.407421
-0.118399 0.655265 1.432727
-0.306438 0.758894 1.639640
-0.293870 0.749782 1.619951
-0.279504 0.735372 1.588819
-0.243164 0.660358 1.426745
-0.227948 0.639629 1.381959
-0.219809 0.638017 1.378477
-0.211417 0.635527 1.373097
-0.202799 0.632150 1.365800
-0.195304 0.632146 1.365791
-0.187877 0.632372 1.366281
-0.180723 0.633576 1.368882
-0.173416 0.634322 1.370492
-0.166281 0.635795 1.373676
-0.158870 0.636302 1.374770
-0.151445 0.636801 1.375849
-0.143917 0.636894 1.376050
-0.136316 0.636658 1.375540
-0.130196 0.643719 1.390797
-0.124378 0.653243 1.411374
-0.117377 0.657405 1.420366
-0.305238 0.764883 1.633215
-0.293633 0.758059 1.618646
-0.276924 0.737222 1.574153
-0.239724 0.658735 1.406564
-0.227801 0.646794 1.381067
-0.219515 0.644716 1.376630
-0.211095 0.642080 1.371001
-0.202610 0.639048 1.364527
-0.195181 0.639238 1.364933
-0.187726 0.639355 1.365183
-0.180433 0.640058 1.366683
-0.172984 0.640245 1.367082
-0.165764 0.641331 1.369403
-0.158704 0.643172 1.373332
-0.151126 0.642992 1.372949
-0.143780 0.643829 1.374735
-0.136651 0.645789 1.378922
-0.130236 0.651550 1.391221
-0.124102 0.659517 1.408234
-0.117492 0.665852 1.421760
-0.320086 0.788344 1.663816
-0.303989 0.770679 1.626535
-0.291213 0.760620 1.605305
-0.263647 0.710099 1.498679
-0.236848 0.658459 1.389691
-0.227080 0.652302 1.376698
-0.219139 0.651153 1.374273
-0.210687 0.648350 1.368356
-0.202180 0.645162 1.361628
-0.195193 0.646766 1.365014
-0.187549 0.646238 1.363899
-0.179893 0.645620 1.362595
-0.172591 0.646273 1.363973
-0.165606 0.648227 1.368097
-0.158305 0.649070 1.369877
-0.150790 0.649079 1.369895
-0.143562 0.650385 1.372653
-0.136422 0.652259 1.376607
-0.130520 0.660622 1.394258
-0.124581 0.669820 1.413669
-0.315457 0.785940 1.639753
-0.302225 0.775079 1.617095
-0.287511 0.759646 1.584895
-0.252098 0.686858 1.433033
-0.235645 0.662701 1.382632
-0.226376 0.657812 1.372432
-0.218839 0.657791 1.372389
-0.210260 0.654527 1.365579
-0.202305 0.653036 1.362469
-0.194998 0.653603 1.363651
-0.187108 0.652184 1.360690
-0.179537 0.651804 1.359898
-0.172690 0.654132 1.364756
-0.165626 0.655814 1.368265
-0.158368 0.656848 1.370421
-0.150695 0.656182 1.369032
-0.143735 0.658713 1.374312
-0.136736 0.661334 1.379780
-0.131632 0.673964 1.406133
-0.124536 0.677332 1.413158
-0.315792 0.795780 1.641492
-0.302055 0.783512 1.616186
-0.284051 0.759097 1.565825
-0.246835 0.680217 1.403115
-0.234983 0.668404 1.378748
-0.226246 0.664958 1.371639
-0.218653 0.664758 1.371227
-0.210139 0.661640 1.364794
-0.201866 0.659081 1.359517
-0.194297 0.658709 1.358749
-0.186668 0.658099 1.357491
-0.179435 0.658890 1.359123
-0.172157 0.659578 1.360541
-0.165302 0.662024 1.365588
-0.158327 0.664195 1.370065
-0.150973 0.664919 1.371560
-0.143950 0.667247 1.376361
-0.137399 0.672145 1.386464
-0.132851 0.687994 1.419156
-0.101108 0.635324 1.310512
-0.316716 0.807142 1.646296
-0.301534 0.791012 1.613396
-0.244725 0.682033 1.391116
-0.234384 0.674244 1.375229
-0.225208 0.669401 1.365351
-0.218178 0.670822 1.368248
-0.210109 0.669035 1.364603
-0.201492 0.665306 1.356998
-0.193673 0.664024 1.354383
-0.186409 0.664625 1.355608
-0.179275 0.665754 1.357913
-0.171841 0.665821 1.358048
-0.164844 0.667662 1.361803
-0.157659 0.668882 1.364292
-0.150658 0.671043 1.368699
-0.143955 0.674825 1.376413
-0.138153 0.683487 1.394082
-0.133541 0.699395 1.426528
-0.126880 0.705884 1.439763
-0.315254 0.812408 1.638695
-0.297649 0.789560 1.592609
-0.242768 0.684154 1.379996
-0.233121 0.678119 1.367823
-0.224845 0.675801 1.363149
-0.216990 0.674634 1.360795
-0.209050 0.673110 1.357720
-0.201139 0.671570 1.354614
-0.193223 0.669896 1.351237
-0.186104 0.670963 1.353389
-0.178565 0.670539 1.352534
-0.171455 0.671760 1.354998
-0.164387 0.673261 1.358024
-0.157716 0.676613 1.364786
-0.151002 0.680100 1.371819
-0.143929 0.682253 1.376163
-0.137731 0.689025 1.389822
-0.132822 0.703410 1.418839
-0.310997 0.810308 1.616569
-0.296619 0.795536 1.587098
-0.256648 0.709154 1.414766
-0.241584 0.688350 1.373262
-0.232342 0.683333 1.363253
-0.224295 0.681611 1.359816
-0.216681 0.681129 1.358855
-0.208339 0.678246 1.353103
-0.200459 0.676710 1.350039
-0.192868 0.676067 1.348756
-0.186017 0.678072 1.352757
-0.178526 0.677813 1.352239
-0.171573 0.679660 1.355924
-0.164600 0.681595 1.359785
-0.157702 0.684039 1.364661
-0.150688 0.686198 1.368969
-0.144159 0.690907 1.378363
-0.138172 0.698882 1.394273
-0.125727 0.673210 1.343057
-0.314890 0.829433 1.636805
-0.252697 0.705881 1.392987
-0.240874 0.693843 1.369231
-0.231897 0.689488 1.360638
-0.224030 0.688257 1.358207
-0.215975 0.686343 1.354432
-0.207732 0.683674 1.349163
-0.200124 0.682975 1.347785
-0.192592 0.682490 1.346826
-0.185460 0.683442 1.348706
-0.178397 0.684738 1.351264
-0.171142 0.685375 1.352520
-0.164407 0.688247 1.358189
-0.157956 0.692641 1.366859
-0.150308 0.691961 1.365518
-0.143378 0.694685 1.370893
-0.137297 0.702058 1.385443
-0.251481 0.710090 1.386282
-0.240018 0.698861 1.364360
-0.231036 0.694368 1.355589
-0.222957 0.692378 1.351704
-0.215400 0.691929 1.350827
-0.207345 0.689790 1.346651
-0.199836 0.689376 1.345843
-0.192413 0.689238 1.345573
-0.185121 0.689578 1.346237
-0.177881 0.690149 1.347352
-0.170884 0.691751 1.350480
-0.164081 0.694323 1.355501
-0.158238 0.701390 1.369297
-0.151851 0.706635 1.379537
-0.144471 0.707562 1.381347
-0.138752 0.717177 1.400118
-0.263409 0.729669 1.409408
-0.249152 0.711050 1.373443
-0.239682 0.705359 1.362452
-0.230408 0.699897 1.351900
-0.221732 0.695948 1.344273
-0.215004 0.698055 1.348343
-0.207142 0.696495 1.345329
-0.199522 0.695666 1.343728
-0.192023 0.695208 1.342844
-0.184996 0.696497 1.345333
-0.177733 0.696962 1.346231
-0.170396 0.697167 1.346628
-0.164479 0.703464 1.358791
-0.158066 0.708134 1.367811
-0.152875 0.719017 1.388833
