# .PCD v0.7 - Point Cloud Data file format
VERSION 0.7
FIELDS x y z
SIZE 4 4 4
TYPE F F F
COUNT 1 1 1
WIDTH 1718
HEIGHT 1
VIEWPOINT 0 0 0 1 0 0 0
POINTS 1718
DATA ascii
-0.135348 0.201119 1.445830
-0.127772 0.201683 1.449883
-0.119714 0.201511 1.448647
-0.112002 0.201937 1.451711
-0.104199 0.202254 1.453990
-0.096016 0.201823 1.450894
-0.087880 0.201421 1.448004
-0.079905 0.201347 1.447471
-0.071917 0.201220 1.446554
-0.064016 0.201334 1.447375
-0.056171 0.201683 1.449889
-0.048292 0.202002 1.452181
-0.040322 0.201994 1.452122
-0.032399 0.202275 1.454142
-0.024504 0.202974 1.459166
-0.016543 0.203534 1.463194
-0.008550 0.204389 1.469338
-0.000492 0.206048 1.481268
0.007698 0.207726 1.493328
0.016038 0.209634 1.507045
0.024649 0.212576 1.528194
0.033980 0.218660 1.571929
-0.269842 0.221785 1.533895
-0.257430 0.218396 1.510449
-0.246358 0.215956 1.493576
-0.236482 0.214432 1.483036
-0.226164 0.212384 1.468870
-0.216739 0.211054 1.459677
-0.208307 0.210628 1.456726
-0.199068 0.209318 1.447665
-0.190956 0.209133 1.446391
-0.182767 0.208845 1.444394
-0.174447 0.208373 1.441135
-0.166536 0.208369 1.441106
-0.158492 0.208190 1.439865
-0.150603 0.208206 1.439976
-0.142853 0.208426 1.441502
-0.135042 0.208579 1.442554
-0.127538 0.209255 1.447231
-0.119709 0.209450 1.448584
-0.111913 0.209736 1.450556
-0.104045 0.209920 1.451831
-0.095751 0.209204 1.446882
-0.087593 0.208684 1.443285
-0.079753 0.208893 1.444726
-0.071776 0.208746 1.443715
-0.063829 0.208665 1.443149
-0.055981 0.208931 1.444989
-0.048139 0.209307 1.447590
-0.040209 0.209374 1.448058
-0.032337 0.209849 1.451343
-0.024404 0.210120 1.453211
-0.016495 0.210945 1.458919
-0.008538 0.212142 1.467198
-0.000491 0.213769 1.478450
0.007669 0.215089 1.487580
0.015985 0.217176 1.502013
0.024552 0.220098 1.522221
0.033876 0.226594 1.567153
0.043606 0.232628 1.608880
-0.269052 0.229528 1.529405
-0.257055 0.226354 1.508254
-0.246319 0.224116 1.493340
-0.236179 0.222284 1.481132
-0.226111 0.220393 1.468532
-0.216445 0.218767 1.457702
-0.207571 0.217849 1.451580
-0.198876 0.217052 1.446269
-0.190497 0.216548 1.442912
-0.182425 0.216364 1.441691
-0.174076 0.215821 1.438072
-0.166047 0.215641 1.436873
-0.158167 0.215647 1.436912
-0.150318 0.215698 1.437248
-0.142466 0.215751 1.437601
-0.134866 0.216213 1.440682
-0.127165 0.216561 1.442998
-0.119647 0.217286 1.447832
-0.111934 0.217737 1.450838
-0.103801 0.217376 1.448432
-0.095529 0.216640 1.443524
-0.087406 0.216142 1.440206
-0.079474 0.216060 1.439665
-0.071443 0.215665 1.437027
-0.063551 0.215641 1.436873
-0.055723 0.215859 1.438320
-0.047882 0.216090 1.439862
-0.040063 0.216533 1.442815
-0.032226 0.217066 1.446366
-0.024348 0.217592 1.449868
-0.016474 0.218675 1.457088
-0.008515 0.219617 1.463362
-0.000488 0.220709 1.470639
0.007636 0.222294 1.481201
0.015937 0.224744 1.497525
0.024505 0.228007 1.519265
0.033596 0.233245 1.554172
0.043741 0.242200 1.613841
-0.267956 0.236951 1.523173
-0.256307 0.233947 1.503865
-0.245783 0.231804 1.490088
-0.235189 0.229445 1.474925
-0.225243 0.227573 1.462891
-0.216109 0.226414 1.455440
-0.206944 0.225131 1.447190
-0.198379 0.224426 1.442658
-0.190243 0.224166 1.440987
-0.182079 0.223850 1.438956
-0.173624 0.223131 1.434333
-0.165654 0.222996 1.433470
-0.157682 0.222846 1.432506
-0.149861 0.222905 1.432880
-0.142260 0.223316 1.435524
-0.134616 0.223702 1.438005
-0.126933 0.224068 1.440356
-0.119655 0.225245 1.447927
-0.112076 0.225984 1.452672
-0.103856 0.225444 1.449205
-0.095442 0.224358 1.442223
-0.087258 0.223664 1.437760
-0.079173 0.223113 1.434221
-0.071303 0.223112 1.434215
-0.063370 0.222888 1.432774
-0.055544 0.223030 1.433686
-0.047802 0.223617 1.437460
-0.039953 0.223833 1.438850
-0.032093 0.224073 1.440393
-0.024255 0.224686 1.444331
-0.016388 0.225489 1.449497
-0.008475 0.226566 1.456417
-0.000487 0.228024 1.465786
0.007619 0.229912 1.477926
0.015914 0.232623 1.495355
0.024434 0.235659 1.514866
0.033435 0.240616 1.546731
-0.267456 0.244851 1.520331
-0.255470 0.241408 1.498955
-0.244782 0.239003 1.484020
-0.234545 0.236888 1.470887
-0.224755 0.235090 1.459721
-0.215677 0.233932 1.452530
-0.206590 0.232674 1.444720
-0.198079 0.231990 1.440473
-0.189768 0.231493 1.437389
-0.181384 0.230861 1.433463
-0.173187 0.230420 1.430723
-0.165481 0.230621 1.431972
-0.157489 0.230424 1.430751
-0.149699 0.230518 1.431335
-0.141999 0.230767 1.432882
-0.134373 0.231175 1.435415
-0.126688 0.231524 1.437579
-0.119480 0.232850 1.445812
-0.112097 0.233998 1.452940
-0.103646 0.232922 1.446264
-0.095289 0.231898 1.439901
-0.087055 0.231014 1.434414
-0.079065 0.230665 1.432248
-0.071221 0.230714 1.432554
-0.063268 0.230378 1.430465
-0.055469 0.230587 1.431762
-0.047643 0.230736 1.432687
-0.039823 0.230974 1.434169
-0.032018 0.231437 1.437039
-0.024188 0.231964 1.440315
-0.016381 0.233337 1.448836
-0.008455 0.234007 1.452997
-0.000485 0.235202 1.460421
0.007586 0.236997 1.471566
0.015861 0.240027 1.490380
0.024367 0.243308 1.510749
0.033383 0.248714 1.544319
0.043495 0.258448 1.604759
-0.266177 0.251983 1.513063
-0.254516 0.248700 1.493354
-0.243866 0.246221 1.478467
-0.233792 0.244172 1.466164
-0.224056 0.242343 1.455180
-0.215185 0.241350 1.449215
-0.206058 0.239981 1.440999
-0.197629 0.239349 1.437203
-0.189013 0.238428 1.431670
-0.180920 0.238116 1.429798
-0.173046 0.238076 1.429557
-0.165203 0.238078 1.429572
-0.157234 0.237889 1.428434
-0.149497 0.238051 1.429405
-0.141782 0.238265 1.430693
-0.134233 0.238801 1.433912
-0.126750 0.239529 1.438281
-0.119524 0.240871 1.446342
-0.111990 0.241740 1.451557
-0.103520 0.240567 1.444513
-0.095348 0.239948 1.440796
-0.087101 0.239012 1.435181
-0.079070 0.238541 1.432349
-0.071086 0.238125 1.429852
-0.063212 0.238017 1.429203
-0.055351 0.237935 1.428712
-0.047538 0.238071 1.429527
-0.039787 0.238626 1.432863
-0.031965 0.238924 1.434647
-0.024139 0.239383 1.437405
-0.016352 0.240856 1.446253
-0.008462 0.242172 1.454152
-0.000484 0.242712 1.457394
0.007572 0.244612 1.468805
0.015804 0.247320 1.485065
0.024253 0.250412 1.503628
0.033235 0.256052 1.537499
0.043261 0.265815 1.596120
-0.279489 0.265036 1.540679
-0.265828 0.259943 1.511075
-0.253346 0.255714 1.486490
-0.243356 0.253801 1.475371
-0.233354 0.251745 1.463419
-0.223534 0.249745 1.451791
-0.214533 0.248546 1.444822
-0.205669 0.247421 1.438280
-0.197229 0.246735 1.434292
-0.188918 0.246160 1.430950
-0.180838 0.245849 1.429147
-0.172904 0.245719 1.428388
-0.164946 0.245540 1.427350
-0.157183 0.245648 1.427973
-0.149404 0.245740 1.428509
-0.141874 0.246276 1.431625
-0.134142 0.246503 1.432947
-0.126751 0.247423 1.438296
-0.119461 0.248677 1.445586
-0.112142 0.250045 1.453534
-0.103503 0.248452 1.444277
-0.095162 0.247371 1.437992
-0.086911 0.246347 1.432041
-0.078874 0.245788 1.428790
-0.070931 0.245432 1.426718
-0.063121 0.245506 1.427150
-0.055250 0.245327 1.426109
-0.047457 0.245492 1.427068
-0.039699 0.245945 1.429701
-0.031914 0.246402 1.432362
-0.024114 0.247017 1.435932
-0.016299 0.247998 1.441634
-0.008430 0.249215 1.448710
-0.000482 0.249919 1.452804
0.007548 0.251876 1.464180
0.015755 0.254671 1.480427
0.024235 0.258477 1.502552
0.033218 0.264352 1.536701
0.043242 0.274453 1.595420
-0.280096 0.274083 1.544022
-0.265354 0.267756 1.508380
-0.252791 0.263293 1.483234
-0.242337 0.260801 1.469198
-0.232493 0.258816 1.458019
-0.223305 0.257447 1.450302
-0.213884 0.255698 1.440452
-0.205082 0.254583 1.434172
-0.196728 0.253957 1.430645
-0.188694 0.253710 1.429254
-0.180610 0.253371 1.427343
-0.172620 0.253140 1.426042
-0.164760 0.253086 1.425739
-0.157112 0.253369 1.427328
-0.149406 0.253582 1.428532
-0.141728 0.253869 1.430147
-0.134056 0.254203 1.432030
-0.126838 0.255491 1.439283
-0.119738 0.257205 1.448940
-0.112047 0.257801 1.452297
-0.103492 0.256348 1.444115
-0.094922 0.254618 1.434364
-0.086916 0.254221 1.432129
-0.078851 0.253556 1.428383
-0.070903 0.253162 1.426167
-0.063066 0.253114 1.425894
-0.055214 0.252986 1.425174
-0.047429 0.253175 1.426236
-0.039662 0.253552 1.428361
-0.031856 0.253807 1.429797
-0.024029 0.253998 1.430875
-0.016256 0.255230 1.437816
-0.008414 0.256657 1.445851
-0.000482 0.257603 1.451180
0.007539 0.259582 1.462330
0.015706 0.261970 1.475785
0.024171 0.266019 1.498596
0.033116 0.271943 1.531963
0.043272 0.283408 1.596552
-0.278764 0.281212 1.536681
-0.263926 0.274548 1.500266
-0.252214 0.270812 1.479849
-0.241438 0.267865 1.463747
-0.231588 0.265779 1.452346
-0.222984 0.265023 1.448218
-0.213553 0.263195 1.438225
-0.204857 0.262165 1.432600
-0.196571 0.261599 1.429504
-0.188369 0.261103 1.426796
-0.180445 0.260964 1.426039
-0.172634 0.260987 1.426160
-0.164822 0.261008 1.426277
-0.156847 0.260760 1.424920
-0.149358 0.261336 1.428071
-0.141784 0.261821 1.430719
-0.133995 0.261941 1.431376
-0.126752 0.263209 1.438305
-0.119658 0.264977 1.447965
-0.111872 0.265354 1.450023
-0.103299 0.263781 1.441431
-0.094891 0.262400 1.433884
-0.086823 0.261797 1.430586
-0.078879 0.261487 1.428896
-0.070904 0.260992 1.426190
-0.062922 0.260344 1.422648
-0.055154 0.260525 1.423637
-0.047398 0.260829 1.425296
-0.039578 0.260835 1.425332
-0.031793 0.261134 1.426968
-0.024029 0.261851 1.430886
-0.016240 0.262864 1.436419
-0.008404 0.264294 1.444235
-0.000481 0.265135 1.448830
0.007511 0.266641 1.457060
0.015698 0.269939 1.475080
0.024091 0.273332 1.493622
0.033003 0.279397 1.526761
0.043297 0.292336 1.597468
0.053318 0.299387 1.635997
-0.292715 0.295210 1.566211
-0.278243 0.289102 1.533805
-0.262675 0.281440 1.493157
-0.251785 0.278458 1.477333
-0.240869 0.275247 1.460299
-0.231218 0.273310 1.450025
-0.222052 0.271829 1.442168
-0.213227 0.270672 1.436026
-0.204709 0.269830 1.431561
-0.196271 0.269031 1.427322
-0.188383 0.268952 1.426900
-0.180476 0.268837 1.426290
-0.172404 0.268453 1.424257
-0.164681 0.268603 1.425051
-0.156889 0.268650 1.425298
-0.149354 0.269165 1.428030
-0.141826 0.269750 1.431136
-0.134360 0.270530 1.435276
-0.127011 0.271656 1.441248
-0.119650 0.272904 1.447870
-0.111934 0.273462 1.450831
-0.103496 0.272208 1.444174
-0.095054 0.270735 1.436359
-0.086818 0.269633 1.430517
-0.078947 0.269560 1.430127
-0.071001 0.269183 1.428129
-0.063039 0.268649 1.425295
-0.055222 0.268668 1.425393
-0.047391 0.268609 1.425080
-0.039584 0.268698 1.425553
-0.031816 0.269152 1.427962
-0.024042 0.269849 1.431661
-0.016221 0.270423 1.434705
-0.008389 0.271727 1.441622
-0.000481 0.272909 1.447897
0.007515 0.274777 1.457805
0.015649 0.277170 1.470504
0.024038 0.280902 1.490304
0.032940 0.287219 1.523817
0.042741 0.297234 1.576949
0.052650 0.304498 1.615490
-0.291147 0.302176 1.557819
-0.276006 0.295126 1.521476
-0.261111 0.287908 1.484262
-0.250106 0.284652 1.467478
-0.240149 0.282412 1.455930
-0.230785 0.280739 1.447305
-0.221666 0.279256 1.439658
-0.212803 0.277998 1.433171
-0.204711 0.277689 1.431579
-0.196228 0.276803 1.427011
-0.188520 0.276982 1.427937
-0.180396 0.276540 1.425654
-0.172464 0.276364 1.424750
-0.164627 0.276332 1.424586
-0.156946 0.276571 1.425816
-0.149210 0.276735 1.426662
-0.141713 0.277383 1.430001
-0.134234 0.278144 1.433926
-0.126875 0.279265 1.439703
-0.119702 0.280970 1.448496
-0.112030 0.281665 1.452077
-0.103519 0.280194 1.444492
-0.095004 0.278468 1.435595
-0.086865 0.277631 1.431283
-0.078971 0.277489 1.430550
-0.071028 0.277125 1.428675
-0.063075 0.276626 1.426099
-0.055200 0.276375 1.424807
-0.047385 0.276395 1.424908
-0.039577 0.276470 1.425295
-0.031826 0.277076 1.428419
-0.024038 0.277654 1.431401
-0.016222 0.278318 1.434823
-0.008380 0.279350 1.440144
-0.000482 0.281553 1.451499
0.007529 0.283314 1.460580
0.015664 0.285504 1.471871
0.024036 0.289055 1.490176
0.032777 0.294125 1.516313
0.042204 0.302042 1.557128
0.052210 0.310743 1.601987
0.063508 0.323521 1.667858
-0.287579 0.306916 1.538728
-0.273635 0.300868 1.508404
-0.260570 0.295439 1.481189
-0.249533 0.292034 1.464118
-0.239922 0.290127 1.454555
-0.230396 0.288195 1.444868
-0.221541 0.286994 1.438847
-0.212916 0.286014 1.433933
-0.204492 0.285238 1.430047
-0.196158 0.284532 1.426504
-0.188162 0.284277 1.425225
-0.180288 0.284191 1.424798
-0.172571 0.284359 1.425637
-0.164671 0.284225 1.424967
-0.156913 0.284335 1.425518
-0.149366 0.284860 1.428148
-0.141802 0.285408 1.430899
-0.134399 0.286364 1.435690
-0.127159 0.287807 1.442923
-0.119961 0.289543 1.451630
-0.112141 0.289919 1.453515
-0.103596 0.288334 1.445565
-0.095240 0.287057 1.439164
-0.087014 0.285976 1.433744
-0.078933 0.285201 1.429857
-0.071050 0.285053 1.429120
-0.063082 0.284485 1.426270
-0.055232 0.284362 1.425652
-0.047394 0.284266 1.425172
-0.039556 0.284142 1.424551
-0.031796 0.284650 1.427096
-0.024022 0.285319 1.430450
-0.016227 0.286268 1.435208
-0.008376 0.287096 1.439359
-0.000481 0.289206 1.449939
0.007518 0.290887 1.458365
0.015621 0.292771 1.467809
0.023967 0.296382 1.485915
0.032635 0.301131 1.509726
0.041695 0.306841 1.538354
0.051703 0.316434 1.586444
-0.284922 0.312446 1.524513
-0.272055 0.307360 1.499696
-0.260079 0.302995 1.478397
-0.249413 0.299924 1.463415
-0.239506 0.297592 1.452034
-0.230718 0.296536 1.446885
-0.221562 0.294917 1.438985
-0.212951 0.293930 1.434168
-0.204455 0.293032 1.429785
-0.196432 0.292767 1.428495
-0.188184 0.292131 1.425389
-0.180003 0.291548 1.422546
-0.172351 0.291808 1.423815
-0.164665 0.292034 1.424917
-0.157003 0.292326 1.426342
-0.149411 0.292784 1.428575
-0.142191 0.294064 1.434821
-0.134729 0.294964 1.439215
-0.127404 0.296295 1.445711
-0.120127 0.297921 1.453642
-0.112476 0.298784 1.457855
-0.103693 0.296544 1.446922
-0.095359 0.295323 1.440963
-0.087207 0.294494 1.436920
-0.079010 0.293334 1.431263
-0.071042 0.292862 1.428957
-0.063066 0.292236 1.425903
-0.055239 0.292218 1.425817
-0.047417 0.292228 1.425865
-0.039613 0.292378 1.426594
-0.031826 0.292755 1.428437
-0.024016 0.293100 1.430120
-0.016235 0.294294 1.435944
-0.008385 0.295316 1.440930
-0.000480 0.296533 1.446868
0.007513 0.298684 1.457366
0.015626 0.300934 1.468344
0.023884 0.303488 1.480804
0.032439 0.307554 1.500645
0.041216 0.311663 1.520695
0.050839 0.319703 1.559923
0.061657 0.331857 1.619227
-0.282405 0.317977 1.511045
-0.270147 0.313376 1.489180
-0.259608 0.310543 1.475718
-0.249427 0.307970 1.463493
-0.239981 0.306165 1.454913
-0.230705 0.304458 1.446804
-0.221528 0.302766 1.438762
-0.213020 0.301897 1.434634
-0.204218 0.300528 1.428126
-0.196086 0.300076 1.425979
-0.188397 0.300292 1.427006
-0.180282 0.299819 1.424757
-0.172414 0.299731 1.424342
-0.164932 0.300337 1.427221
-0.157388 0.300888 1.429836
-0.149791 0.301389 1.432217
-0.142385 0.302349 1.436782
-0.135281 0.304102 1.445110
-0.128036 0.305736 1.452876
-0.120682 0.307311 1.460359
-0.112828 0.307746 1.462425
-0.104105 0.305694 1.452674
-0.095613 0.304036 1.444799
-0.087313 0.302748 1.438675
-0.079225 0.302005 1.435147
-0.071190 0.301331 1.431941
-0.063167 0.300540 1.428183
-0.055238 0.300037 1.425792
-0.047372 0.299771 1.424531
-0.039576 0.299929 1.425279
-0.031817 0.300506 1.428020
-0.024025 0.301053 1.430621
-0.016256 0.302565 1.437807
-0.008397 0.303647 1.442946
-0.000480 0.304562 1.447296
0.007519 0.306917 1.458487
0.015636 0.309173 1.469208
0.023873 0.311462 1.480085
0.032250 0.313949 1.491903
0.040912 0.317645 1.509468
0.050337 0.325022 1.544523
0.061264 0.338573 1.608919
-0.293381 0.329281 1.524999
-0.280373 0.323921 1.500173
-0.268734 0.319865 1.481390
-0.258475 0.317251 1.469282
-0.249336 0.315886 1.462963
-0.240115 0.314323 1.455725
-0.230605 0.312262 1.446177
-0.221783 0.311019 1.440421
-0.213033 0.309788 1.434721
-0.204356 0.308574 1.429096
-0.196352 0.308319 1.427915
-0.188335 0.308021 1.426536
-0.180275 0.307623 1.424696
-0.172977 0.308550 1.428988
-0.165181 0.308635 1.429381
-0.157641 0.309230 1.432134
-0.150504 0.310718 1.439026
-0.143000 0.311574 1.442992
-0.135678 0.312948 1.449357
-0.128564 0.315002 1.458870
-0.121463 0.317366 1.469814
-0.113347 0.317220 1.469142
-0.104389 0.314520 1.456636
-0.095987 0.313185 1.450452
-0.087661 0.311879 1.444405
-0.079518 0.311028 1.440465
-0.071337 0.309823 1.434882
-0.063344 0.309241 1.432188
-0.055363 0.308560 1.429033
-0.047423 0.307917 1.426054
-0.039634 0.308198 1.427357
-0.031861 0.308768 1.429995
-0.024056 0.309306 1.432490
-0.016255 0.310436 1.437721
-0.008401 0.311741 1.443767
-0.000482 0.313488 1.451855
0.007536 0.315661 1.461921
0.015629 0.317090 1.468539
0.023844 0.319203 1.478322
0.032171 0.321349 1.488262
0.040740 0.324558 1.503123
0.050015 0.331363 1.534638
0.060953 0.345640 1.600760
-0.292328 0.336438 1.519530
-0.279801 0.331475 1.497113
-0.268386 0.327569 1.479470
-0.258413 0.325234 1.468928
-0.248921 0.323374 1.460525
-0.239761 0.321836 1.453580
-0.230901 0.320608 1.448034
-0.222013 0.319253 1.441912
-0.213424 0.318243 1.437351
-0.204962 0.317352 1.433329
-0.196540 0.316455 1.429278
-0.188828 0.316674 1.430266
-0.180866 0.316475 1.429368
-0.173352 0.317077 1.432085
-0.165853 0.317765 1.435193
-0.158307 0.318427 1.438184
-0.151222 0.320135 1.445897
-0.143786 0.321247 1.450920
-0.136455 0.322738 1.457654
-0.129091 0.324331 1.464850
-0.121841 0.326442 1.474383
-0.113801 0.326587 1.475038
-0.105005 0.324418 1.465239
-0.096460 0.322725 1.457596
-0.087947 0.320848 1.449115
-0.079792 0.320030 1.445421
-0.071531 0.318560 1.438784
-0.063464 0.317699 1.434895
-0.055535 0.317382 1.433463
-0.047567 0.316700 1.430383
-0.039702 0.316571 1.429802
-0.031950 0.317497 1.433984
-0.024104 0.317790 1.435304
-0.016268 0.318569 1.438825
-0.008414 0.320162 1.446016
-0.000483 0.322293 1.455644
0.007533 0.323546 1.461305
0.015619 0.324939 1.467595
0.023863 0.327564 1.479448
0.032129 0.329081 1.486302
0.040596 0.331631 1.497819
0.049706 0.337688 1.525173
0.059969 0.348700 1.574913
-0.289896 0.341908 1.506888
-0.278509 0.338121 1.490198
-0.268179 0.335427 1.478328
-0.258053 0.332829 1.466878
-0.248723 0.331124 1.459363
-0.240247 0.330481 1.456527
-0.230932 0.328599 1.448231
-0.222246 0.327508 1.443426
-0.213939 0.326917 1.440819
-0.205572 0.326185 1.437595
-0.197161 0.325323 1.433793
-0.189336 0.325396 1.434115
-0.181405 0.325286 1.433632
-0.173953 0.326062 1.437054
-0.166491 0.326893 1.440716
-0.159099 0.327952 1.445382
-0.151562 0.328806 1.449144
-0.144322 0.330435 1.456324
-0.137331 0.332859 1.467007
-0.129722 0.333995 1.472014
-0.122342 0.335907 1.480442
-0.114267 0.336049 1.481069
-0.105590 0.334310 1.473402
-0.097063 0.332791 1.466708
-0.088429 0.330601 1.457056
-0.080177 0.329546 1.452405
-0.071832 0.327829 1.444838
-0.063617 0.326356 1.438348
-0.055548 0.325327 1.433812
-0.047656 0.325157 1.433064
-0.039816 0.325350 1.433915
-0.031973 0.325601 1.435019
-0.024155 0.326362 1.438374
-0.016288 0.326865 1.440592
-0.008430 0.328719 1.448763
-0.000484 0.330832 1.458076
0.007536 0.331680 1.461812
0.015621 0.333039 1.467803
0.023818 0.335050 1.476663
0.032077 0.336692 1.483904
0.040559 0.339537 1.496439
0.049444 0.344232 1.517132
0.059681 0.355626 1.567349
-0.289382 0.349555 1.504214
-0.277218 0.344692 1.483290
-0.267369 0.342501 1.473863
-0.257584 0.340259 1.464214
-0.248748 0.339167 1.459512
-0.240275 0.338512 1.456693
-0.231290 0.337066 1.450473
-0.222660 0.336054 1.446118
-0.214381 0.335516 1.443802
-0.206037 0.334829 1.440848
-0.197852 0.334359 1.438823
-0.189820 0.334118 1.437786
-0.181913 0.334085 1.437643
-0.174663 0.335311 1.442921
-0.167236 0.336296 1.447160
-0.159960 0.337700 1.453199
-0.152659 0.339195 1.459632
-0.145235 0.340567 1.465537
-0.137766 0.341989 1.471656
-0.130389 0.343829 1.479576
-0.123414 0.347047 1.493423
-0.115147 0.346828 1.492479
-0.106284 0.344644 1.483081
-0.097514 0.342422 1.473519
-0.089023 0.340869 1.466836
-0.080615 0.339358 1.460334
-0.072230 0.337617 1.452843
-0.063905 0.335765 1.444876
-0.055789 0.334637 1.440019
-0.047829 0.334228 1.438259
-0.039914 0.334037 1.437439
-0.032034 0.334112 1.437762
-0.024234 0.335350 1.443089
-0.016369 0.336439 1.447776
-0.008451 0.337482 1.452263
-0.000484 0.338567 1.456933
0.007532 0.339543 1.461130
0.015627 0.341221 1.468354
0.023781 0.342626 1.474400
0.032046 0.344503 1.482474
0.040537 0.347564 1.495646
0.049333 0.351762 1.513715
0.059515 0.363212 1.562986
-0.288543 0.356771 1.499853
-0.277250 0.352872 1.483461
-0.267037 0.350154 1.472033
-0.257411 0.348059 1.463229
-0.248970 0.347484 1.460812
-0.240246 0.346464 1.456521
-0.231787 0.345766 1.453590
-0.223558 0.345375 1.451945
-0.215052 0.344513 1.448320
-0.206624 0.343712 1.444954
-0.198383 0.343172 1.442681
-0.190382 0.343019 1.442042
-0.182833 0.343702 1.444913
-0.175570 0.345009 1.450407
-0.167656 0.345102 1.450795
-0.160388 0.346598 1.457086
-0.153190 0.348411 1.464709
-0.146034 0.350528 1.473607
-0.138762 0.352595 1.482297
-0.131357 0.354562 1.490565
-0.124794 0.359214 1.510122
-0.116944 0.360556 1.515767
-0.106877 0.354748 1.491349
-0.098151 0.352799 1.483156
-0.089527 0.350893 1.475141
-0.080957 0.348844 1.466526
-0.072479 0.346782 1.457859
-0.064166 0.345097 1.450774
-0.056030 0.344018 1.446238
-0.048050 0.343698 1.444896
-0.040073 0.343289 1.443175
-0.032178 0.343538 1.444221
-0.024314 0.344402 1.447853
-0.016418 0.345426 1.452159
-0.008466 0.346079 1.454906
-0.000485 0.347310 1.460077
0.007542 0.348017 1.463051
0.015623 0.349204 1.468040
0.023820 0.351283 1.476780
0.032088 0.353106 1.484444
0.040531 0.355715 1.495412
0.049297 0.359807 1.512615
0.059106 0.369230 1.552231
0.071028 0.387822 1.630389
-0.288009 0.364325 1.497077
-0.276802 0.360429 1.481066
-0.267224 0.358482 1.473067
-0.258041 0.356960 1.466813
-0.249179 0.355798 1.462038
-0.240743 0.355189 1.459535
-0.231980 0.354038 1.454804
-0.223651 0.353489 1.452549
-0.215235 0.352759 1.449548
-0.206880 0.352077 1.446745
-0.198989 0.352161 1.447091
-0.191353 0.352721 1.449394
-0.184003 0.353882 1.454163
-0.176139 0.354113 1.455112
-0.168693 0.355247 1.459773
-0.161200 0.356390 1.464468
-0.153850 0.357984 1.471019
-0.146524 0.359817 1.478550
-0.139207 0.361885 1.487048
-0.131709 0.363711 1.494554
-0.124727 0.367301 1.509304
-0.117556 0.370806 1.523708
-0.107898 0.366399 1.505600
-0.098808 0.363354 1.493085
-0.090078 0.361197 1.484222
-0.081471 0.359160 1.475850
-0.072891 0.356800 1.466153
-0.064535 0.355089 1.459122
-0.056340 0.353902 1.454247
-0.048260 0.353165 1.451215
-0.040286 0.353071 1.450832
-0.032362 0.353474 1.452488
-0.024409 0.353718 1.453488
-0.016445 0.353968 1.454517
-0.008486 0.354873 1.458237
-0.000485 0.355644 1.461404
0.007550 0.356394 1.464486
0.015628 0.357370 1.468495
0.023810 0.359239 1.476177
0.032071 0.361052 1.483628
0.040520 0.363821 1.495005
0.049158 0.367067 1.508341
0.058858 0.376165 1.545729
-0.287430 0.371792 1.494069
-0.277071 0.368914 1.482505
-0.267181 0.366506 1.472828
-0.257846 0.364732 1.465702
-0.248914 0.363434 1.460483
-0.240480 0.362800 1.457935
-0.232062 0.362148 1.455317
-0.224214 0.362371 1.456210
-0.215972 0.361948 1.454514
-0.207166 0.360512 1.448742
-0.199207 0.360496 1.448678
-0.191463 0.360882 1.450230
-0.183863 0.361585 1.453052
-0.176285 0.362396 1.456315
-0.168837 0.363567 1.461020
-0.161346 0.364755 1.465792
-0.154030 0.366485 1.472746
-0.146420 0.367669 1.477503
-0.138908 0.369251 1.483859
-0.131561 0.371494 1.492874
-0.124521 0.374964 1.506817
-0.117184 0.377965 1.518877
-0.108035 0.375136 1.507511
-0.098901 0.371895 1.494485
-0.090233 0.369976 1.486773
-0.081599 0.367834 1.478166
-0.073110 0.365942 1.470562
-0.064747 0.364286 1.463906
-0.056587 0.363465 1.460610
-0.048374 0.361986 1.454664
-0.040343 0.361540 1.452871
-0.032398 0.361842 1.454087
-0.024451 0.362318 1.455998
-0.016473 0.362574 1.457029
-0.008497 0.363370 1.460228
-0.000486 0.364104 1.463176
0.007550 0.364460 1.464609
0.015661 0.366195 1.471581
0.023810 0.367340 1.476179
0.032102 0.369554 1.485079
0.040517 0.371993 1.494880
0.049139 0.375202 1.507776
0.058824 0.384424 1.544833
0.069845 0.398958 1.603239
-0.287758 0.380422 1.495770
-0.276761 0.376627 1.480849
-0.266930 0.374236 1.471446
-0.258204 0.373293 1.467741
-0.249273 0.371984 1.462592
-0.240539 0.370891 1.458293
-0.232470 0.370784 1.457873
-0.224517 0.370861 1.458176
-0.216209 0.370336 1.456111
-0.207881 0.369733 1.453743
-0.199797 0.369535 1.452964
-0.191814 0.369516 1.452889
-0.184301 0.370439 1.456517
-0.176658 0.371172 1.459398
-0.169049 0.372049 1.462849
-0.161413 0.372952 1.466399
-0.153894 0.374235 1.471442
-0.146399 0.375720 1.477281
-0.139074 0.377844 1.485632
-0.131766 0.380277 1.495199
-0.124564 0.383364 1.507337
-0.117176 0.386275 1.518782
-0.107988 0.383243 1.506860
-0.099132 0.380982 1.497973
-0.090459 0.379085 1.490512
-0.081538 0.375663 1.477056
-0.073099 0.373950 1.470324
-0.064926 0.373349 1.467961
-0.056673 0.372050 1.462852
-0.048511 0.371014 1.458777
-0.040474 0.370711 1.457586
-0.032441 0.370310 1.456010
-0.024490 0.370904 1.458345
-0.016491 0.370968 1.458597
-0.008503 0.371647 1.461267
-0.000486 0.372060 1.462892
0.007554 0.372697 1.465394
0.015656 0.374141 1.471072
0.023827 0.375714 1.477257
0.032080 0.377440 1.484043
0.040488 0.379929 1.493832
0.049131 0.383408 1.507510
0.058768 0.392530 1.543376
0.069948 0.408356 1.605601
-0.287271 0.387972 1.493239
-0.277101 0.385225 1.482668
-0.267113 0.382572 1.472454
-0.258607 0.381942 1.470029
-0.249348 0.380123 1.463030
-0.240899 0.379460 1.460476
-0.232758 0.379253 1.459682
-0.223959 0.377920 1.454549
-0.215997 0.377954 1.454680
-0.208097 0.378103 1.455254
-0.200166 0.378206 1.455650
-0.192297 0.378438 1.456545
-0.184461 0.378759 1.457781
-0.176794 0.379472 1.460523
-0.169015 0.380001 1.462559
-0.161486 0.381171 1.467064
-0.153865 0.382238 1.471168
-0.146615 0.384395 1.479470
-0.139220 0.386400 1.487189
-0.131907 0.388898 1.496802
-0.124859 0.392562 1.510906
-0.117275 0.394941 1.520061
-0.107919 0.391258 1.505888
-0.099055 0.388899 1.496806
-0.090346 0.386776 1.488635
-0.081772 0.384867 1.481288
-0.073178 0.382436 1.471930
-0.064959 0.381599 1.468709
-0.056802 0.380940 1.466176
-0.048667 0.380237 1.463470
-0.040594 0.379837 1.461927
-0.032513 0.379141 1.459249
-0.024517 0.379320 1.459938
-0.016522 0.379683 1.461336
-0.008517 0.380259 1.463552
-0.000486 0.380575 1.464771
0.007564 0.381232 1.467299
0.015671 0.382598 1.472555
0.023858 0.384313 1.479157
0.032086 0.385655 1.484321
0.040538 0.388604 1.495672
0.049183 0.392099 1.509123
0.058865 0.401657 1.545910
0.070664 0.421438 1.622044
-0.287370 0.396302 1.493753
-0.276981 0.393190 1.482025
-0.267219 0.390806 1.473038
-0.258461 0.389788 1.469202
-0.249767 0.388803 1.465489
-0.241308 0.388132 1.462959
-0.232507 0.386844 1.458104
-0.224239 0.386384 1.456371
-0.216137 0.386187 1.455627
-0.208229 0.386333 1.456176
-0.200357 0.386561 1.457036
-0.192417 0.386671 1.457451
-0.184638 0.387129 1.459177
-0.177203 0.388382 1.463901
-0.169431 0.388980 1.466155
-0.161446 0.389124 1.466697
-0.153946 0.390514 1.471938
-0.146671 0.392660 1.480027
-0.139165 0.394405 1.486603
-0.131953 0.397249 1.497322
-0.124883 0.400931 1.511200
-0.117587 0.404355 1.524105
-0.108224 0.400653 1.510152
-0.099236 0.397840 1.499552
-0.090650 0.396274 1.493646
-0.082161 0.394867 1.488346
-0.073681 0.393193 1.482033
-0.065277 0.391563 1.475889
-0.056993 0.390290 1.471091
-0.048832 0.389581 1.468420
-0.040741 0.389265 1.467229
-0.032653 0.388818 1.465546
-0.024603 0.388686 1.465047
-0.016561 0.388621 1.464803
-0.008515 0.388240 1.463367
-0.000487 0.388977 1.466143
0.007578 0.389977 1.469914
0.015685 0.391013 1.473819
0.023830 0.391978 1.477454
0.032103 0.394005 1.485095
0.040598 0.397396 1.497878
0.049393 0.402083 1.515543
0.059081 0.411644 1.551581
0.070689 0.430489 1.622611
-0.287191 0.404248 1.492827
-0.276841 0.401119 1.481273
-0.267623 0.399492 1.475264
-0.258145 0.397364 1.467406
-0.249570 0.396532 1.464334
-0.241197 0.395976 1.462283
-0.232809 0.395359 1.460003
-0.224438 0.394725 1.457661
-0.216331 0.394528 1.456933
-0.208175 0.394222 1.455802
-0.200394 0.394630 1.457309
-0.192456 0.394748 1.457747
-0.184643 0.395146 1.459216
-0.177079 0.396138 1.462880
-0.169504 0.397197 1.466790
-0.161653 0.397683 1.468584
-0.154068 0.398907 1.473105
-0.146687 0.400827 1.480194
-0.139207 0.402683 1.487049
-0.131974 0.405531 1.497565
-0.125012 0.409645 1.512757
-0.117594 0.412742 1.524197
-0.108219 0.408920 1.510080
-0.099245 0.406104 1.499684
-0.090669 0.404557 1.493971
-0.082129 0.402876 1.487762
-0.073701 0.401436 1.482446
-0.065245 0.399469 1.475179
-0.057026 0.398591 1.471939
-0.048926 0.398404 1.471246
-0.040796 0.397847 1.469190
-0.032672 0.397090 1.466395
-0.024645 0.397398 1.467532
-0.016586 0.397256 1.467009
-0.008525 0.396698 1.464949
-0.000487 0.397131 1.466545
0.007567 0.397493 1.467883
0.015703 0.399570 1.475555
0.023852 0.400447 1.478793
0.032101 0.402139 1.485039
0.040590 0.405532 1.497571
0.049429 0.410699 1.516651
0.059354 0.422101 1.558758
0.070258 0.436711 1.612711
-0.287753 0.413245 1.495746
-0.276925 0.409371 1.481722
-0.267816 0.407881 1.476329
-0.258699 0.406285 1.470551
-0.249595 0.404608 1.464483
-0.241012 0.403690 1.461161
-0.232804 0.403361 1.459970
-0.224321 0.402515 1.456906
-0.216015 0.401934 1.454805
-0.208004 0.401880 1.454607
-0.200449 0.402737 1.457709
-0.192478 0.402793 1.457915
-0.184850 0.403605 1.460854
-0.177119 0.404255 1.463204
-0.169465 0.405153 1.466455
-0.161836 0.406200 1.470245
-0.154499 0.408128 1.477224
-0.146991 0.409795 1.483258
-0.139545 0.411839 1.490657
-0.132323 0.414843 1.501530
-0.125006 0.417923 1.512678
-0.117438 0.420545 1.522167
-0.108199 0.417129 1.509802
-0.099423 0.415075 1.502369
-0.090651 0.412670 1.493665
-0.082026 0.410524 1.485896
-0.073675 0.409426 1.481920
-0.065374 0.408368 1.478094
-0.057184 0.407795 1.476018
-0.048958 0.406742 1.472208
-0.040819 0.406141 1.470030
-0.032685 0.405297 1.466977
-0.024624 0.405112 1.466307
-0.016608 0.405847 1.468966
-0.008535 0.405227 1.466725
-0.000488 0.405724 1.468523
0.007592 0.406905 1.472796
0.015702 0.407638 1.475451
0.023861 0.408718 1.479360
0.032181 0.411307 1.488730
0.040687 0.414743 1.501167
0.049527 0.419858 1.519682
0.059585 0.432329 1.564820
0.070195 0.445162 1.611270
-0.289491 0.423999 1.504782
-0.277498 0.418365 1.484789
-0.267931 0.416161 1.476964
-0.258667 0.414302 1.470369
-0.249858 0.413078 1.466023
-0.241375 0.412329 1.463365
-0.232885 0.411515 1.460477
-0.224422 0.410693 1.457558
-0.216188 0.410244 1.455967
-0.208312 0.410467 1.456757
-0.200307 0.410444 1.456676
-0.192645 0.411151 1.459183
-0.185021 0.412001 1.462203
-0.177069 0.412168 1.462795
-0.169327 0.412862 1.465257
-0.161889 0.414402 1.470723
-0.154535 0.416331 1.477570
-0.147035 0.418060 1.483704
-0.139747 0.420629 1.492823
-0.132311 0.423042 1.501385
-0.124980 0.426137 1.512372
-0.116628 0.425942 1.511679
-0.108546 0.426778 1.514645
-0.099862 0.425189 1.509007
-0.090839 0.421741 1.496769
-0.082261 0.419879 1.490160
-0.073844 0.418514 1.485315
-0.065476 0.417128 1.480396
-0.057293 0.416687 1.478833
-0.049030 0.415430 1.474370
-0.040894 0.414963 1.472713
-0.032730 0.413918 1.469005
-0.024654 0.413660 1.468091
-0.016603 0.413783 1.468527
-0.008550 0.414002 1.469304
-0.000488 0.414563 1.471295
0.007594 0.415055 1.473041
0.015717 0.416123 1.476831
0.023876 0.417102 1.480304
0.032204 0.419777 1.489798
0.040753 0.423663 1.503589
0.049698 0.429669 1.524906
0.059362 0.439264 1.558959
-0.290420 0.433643 1.509612
-0.278149 0.427513 1.488273
-0.268547 0.425241 1.480361
-0.258860 0.422686 1.471469
-0.249831 0.421077 1.465868
-0.241247 0.420135 1.462586
-0.232513 0.418858 1.458143
-0.224448 0.418740 1.457729
-0.216253 0.418359 1.456403
-0.208131 0.418096 1.455490
-0.200183 0.418177 1.455772
-0.192581 0.419018 1.458700
-0.184907 0.419767 1.461306
-0.177301 0.420746 1.464714
-0.169508 0.421353 1.466827
-0.162038 0.422863 1.472084
-0.154569 0.424532 1.477893
-0.147249 0.426820 1.485858
-0.139861 0.429169 1.494037
-0.132497 0.431887 1.503499
-0.125177 0.435121 1.514757
-0.112796 0.419967 1.462003
-0.108467 0.434773 1.513544
-0.099897 0.433622 1.509540
-0.091079 0.431089 1.500721
-0.082412 0.428838 1.492884
-0.073897 0.426972 1.486387
-0.065584 0.425950 1.482831
-0.057294 0.424811 1.478864
-0.049105 0.424171 1.476637
-0.040940 0.423522 1.474379
-0.032753 0.422273 1.470030
-0.024655 0.421730 1.468139
-0.016616 0.422170 1.469670
-0.008564 0.422768 1.471754
-0.000489 0.422767 1.471751
0.007594 0.423134 1.473026
0.015711 0.424075 1.476303
0.023889 0.425454 1.481103
0.032206 0.427974 1.489878
0.040760 0.431994 1.503869
0.049667 0.437764 1.523956
0.059184 0.446476 1.554285
-0.290201 0.441592 1.508471
-0.278944 0.436925 1.492528
-0.268662 0.433548 1.480991
-0.258797 0.430655 1.471109
-0.249590 0.428707 1.464453
-0.241078 0.427860 1.461562
-0.232760 0.427313 1.459691
-0.224534 0.426902 1.458287
-0.216226 0.426297 1.456221
-0.208062 0.425942 1.455009
-0.200133 0.426060 1.455412
-0.192622 0.427111 1.459004
-0.184772 0.427472 1.460236
-0.177449 0.429140 1.465933
-0.169759 0.430037 1.468998
-0.162218 0.431417 1.473713
-0.154652 0.432873 1.478687
-0.147104 0.434546 1.484400
-0.139817 0.437230 1.493570
-0.132777 0.441069 1.506681
-0.125919 0.446058 1.523727
-0.099951 0.442143 1.510353
-0.091171 0.439766 1.502232
-0.082502 0.437507 1.494514
-0.073970 0.435556 1.487850
-0.065773 0.435339 1.487109
-0.057370 0.433503 1.480837
-0.048994 0.431296 1.473297
-0.040844 0.430606 1.470940
-0.032814 0.431138 1.472757
-0.024701 0.430591 1.470891
-0.016623 0.430393 1.470213
-0.008555 0.430367 1.470125
-0.000489 0.430864 1.471822
0.007603 0.431732 1.474789
0.015725 0.432548 1.477575
0.023955 0.434765 1.485150
0.032319 0.437675 1.495090
0.040868 0.441404 1.507828
0.049653 0.446005 1.523542
0.059179 0.454967 1.554159
-0.290017 0.449584 1.507514
-0.278532 0.444457 1.490323
-0.268477 0.441370 1.479971
-0.259007 0.439084 1.472306
-0.250174 0.437764 1.467879
-0.241319 0.436316 1.463024
-0.232840 0.435472 1.460194
-0.224521 0.434878 1.458200
-0.216061 0.433957 1.455116
-0.207857 0.433499 1.453579
-0.200085 0.433941 1.455061
-0.192527 0.434904 1.458289
-0.184627 0.435143 1.459090
-0.177388 0.437032 1.465426
-0.169813 0.438235 1.469460
-0.162511 0.440297 1.476373
-0.154943 0.441819 1.481475
-0.147163 0.442867 1.484992
-0.140114 0.446370 1.496737
-0.132889 0.449712 1.507942
-0.099928 0.450329 1.510011
-0.091226 0.448280 1.503141
-0.082586 0.446163 1.496044
-0.074157 0.444840 1.491605
-0.065873 0.444169 1.489356
-0.057439 0.442160 1.482619
-0.049073 0.440086 1.475666
-0.040831 0.438533 1.470458
-0.032735 0.438170 1.469239
-0.024656 0.437854 1.468180
-0.016614 0.438241 1.469480
-0.008541 0.437752 1.467839
-0.000488 0.438472 1.470252
0.007605 0.439929 1.475137
0.015744 0.441207 1.479425
0.023956 0.442946 1.485257
0.032259 0.445059 1.492341
0.040808 0.449028 1.505648
0.049672 0.454537 1.524122
0.059288 0.464352 1.557033
-0.290843 0.459161 1.511809
-0.279286 0.453860 1.494356
-0.268920 0.450234 1.482418
-0.258958 0.447077 1.472023
-0.249923 0.445371 1.466405
-0.241195 0.444116 1.462275
-0.232495 0.442827 1.458028
-0.224141 0.442130 1.455734
-0.216143 0.442109 1.455665
-0.207975 0.441725 1.454403
-0.199879 0.441471 1.453564
-0.192183 0.442114 1.455682
-0.184550 0.442964 1.458480
-0.176892 0.443831 1.461334
-0.169628 0.445812 1.467858
-0.162281 0.447764 1.474286
-0.154772 0.449451 1.479838
-0.147382 0.451688 1.487205
-0.140402 0.455518 1.499817
-0.132974 0.458281 1.508913
-0.100499 0.461231 1.518627
-0.091713 0.458967 1.511172
-0.082993 0.456608 1.503404
-0.074299 0.453894 1.494467
-0.065915 0.452633 1.490315
-0.057496 0.450738 1.484076
-0.049119 0.448608 1.477063
-0.040941 0.447802 1.474412
-0.032738 0.446265 1.469348
-0.024662 0.446023 1.468552
-0.016596 0.445827 1.467907
-0.008551 0.446285 1.469417
-0.000488 0.446858 1.471301
0.007595 0.447456 1.473271
0.015734 0.449016 1.478407
0.023943 0.450846 1.484433
0.032289 0.453671 1.493736
0.040811 0.457313 1.505726
0.049771 0.463821 1.527153
0.059441 0.474114 1.561043
-0.290843 0.467456 1.511809
-0.279479 0.462380 1.495391
-0.269338 0.459079 1.484718
-0.258967 0.455171 1.472079
-0.249812 0.453215 1.465751
-0.240751 0.451307 1.459582
-0.232100 0.450062 1.455555
-0.224007 0.449849 1.454865
-0.216060 0.449923 1.455105
-0.208032 0.449828 1.454798
-0.199932 0.449564 1.453945
-0.192183 0.450102 1.455682
-0.184395 0.450589 1.457260
-0.176981 0.452077 1.462070
-0.169539 0.453628 1.467088
-0.162392 0.456165 1.475292
-0.155154 0.458700 1.483491
-0.147597 0.460520 1.489378
-0.140744 0.464878 1.503472
-0.133595 0.468738 1.515954
-0.091744 0.467414 1.511673
-0.083160 0.465797 1.506443
-0.074491 0.463288 1.498328
-0.066045 0.461721 1.493262
-0.057471 0.458686 1.483444
-0.049132 0.456829 1.477439
-0.040945 0.455937 1.474555
-0.032776 0.454856 1.471057
-0.024642 0.453720 1.467384
-0.016574 0.453272 1.465935
-0.008533 0.453406 1.466369
-0.000488 0.454588 1.470191
0.007599 0.455760 1.473982
0.015742 0.457375 1.479206
0.023993 0.459941 1.487506
0.032377 0.463121 1.497789
0.040870 0.466254 1.507922
0.049570 0.470294 1.520988
-0.291514 0.476849 1.515295
-0.280096 0.471623 1.498690
-0.269446 0.467415 1.485317
-0.259735 0.464622 1.476441
-0.250088 0.461767 1.467371
-0.241267 0.460301 1.462711
-0.232591 0.459017 1.458632
-0.224189 0.458204 1.456047
-0.215782 0.457319 1.453236
-0.207817 0.457339 1.453301
-0.199721 0.457061 1.452416
-0.191988 0.457624 1.454206
-0.184571 0.459022 1.458646
-0.177255 0.460811 1.464333
-0.169951 0.462802 1.470658
-0.162660 0.465026 1.477727
-0.155436 0.467687 1.486183
-0.148002 0.469978 1.493463
-0.141376 0.475251 1.510220
-0.083227 0.474442 1.507648
-0.074672 0.472658 1.501978
-0.065972 0.469392 1.491600
-0.057528 0.467284 1.484901
-0.049149 0.465097 1.477951
-0.040879 0.463285 1.472194
-0.032725 0.462215 1.468793
-0.024624 0.461431 1.466304
-0.016571 0.461222 1.465638
-0.008522 0.460876 1.464540
-0.000487 0.461968 1.468008
0.007591 0.463397 1.472551
0.015736 0.465313 1.478638
0.023995 0.468154 1.487667
0.032377 0.471345 1.497807
0.040889 0.474749 1.508622
0.049691 0.479805 1.524690
-0.292727 0.487182 1.521600
-0.280576 0.480670 1.501260
-0.270069 0.476663 1.488748
-0.259617 0.472509 1.475772
-0.250270 0.470161 1.468440
-0.241119 0.468039 1.461813
-0.232399 0.466636 1.457430
-0.224288 0.466398 1.456687
-0.215535 0.464761 1.451573
-0.207526 0.464662 1.451263
-0.199610 0.464771 1.451605
-0.191872 0.465321 1.453323
-0.184530 0.466924 1.458329
-0.177356 0.469114 1.465169
-0.170030 0.471090 1.471342
-0.162920 0.473893 1.480095
-0.155819 0.477017 1.489851
-0.148430 0.479555 1.497780
-0.141790 0.484954 1.514641
-0.083575 0.484735 1.513959
-0.074904 0.482389 1.506630
-0.066138 0.478779 1.495354
-0.057619 0.476185 1.487255
-0.049214 0.473836 1.479918
-0.040939 0.472055 1.474356
-0.032791 0.471222 1.471752
-0.024669 0.470333 1.468975
-0.016588 0.469737 1.467116
-0.008526 0.469107 1.465147
-0.000487 0.469493 1.466352
0.007598 0.471880 1.473809
0.015759 0.474118 1.480797
0.023990 0.476210 1.487331
0.032415 0.480129 1.499571
0.040955 0.483805 1.511055
0.049852 0.489758 1.529646
-0.293855 0.497441 1.527465
-0.280627 0.488996 1.501534
-0.269419 0.483666 1.485167
-0.259919 0.481165 1.477489
-0.250746 0.479129 1.471235
-0.241148 0.476118 1.461988
-0.232238 0.474305 1.456421
-0.224124 0.474044 1.455621
-0.215609 0.472888 1.452072
-0.207369 0.472267 1.450165
-0.199562 0.472622 1.451255
-0.192030 0.473685 1.454520
-0.184551 0.474979 1.458493
-0.177393 0.477253 1.465474
-0.170076 0.479294 1.471742
-0.163010 0.482280 1.480912
-0.156268 0.486590 1.494146
-0.149078 0.489902 1.504315
-0.142477 0.495656 1.521984
-0.083950 0.495253 1.520745
-0.075102 0.491955 1.510620
-0.066336 0.488441 1.499829
-0.057644 0.484558 1.487906
-0.049219 0.482000 1.480052
-0.040977 0.480591 1.475723
-0.032842 0.480043 1.474041
-0.024657 0.478168 1.468286
-0.016587 0.477770 1.467062
-0.008533 0.477523 1.466304
-0.000487 0.477881 1.467403
0.007600 0.480095 1.474203
0.015756 0.482162 1.480548
0.024016 0.484911 1.488990
0.032451 0.488888 1.501200
0.041040 0.493122 1.514203
0.049871 0.498340 1.530226
-0.296123 0.509727 1.539255
-0.281422 0.498643 1.505783
-0.270401 0.493608 1.490580
-0.260083 0.489582 1.478422
-0.250225 0.486190 1.468179
-0.241217 0.484278 1.462406
-0.232396 0.482623 1.457408
-0.223930 0.481614 1.454362
-0.215712 0.481085 1.452763
-0.207374 0.480236 1.450201
-0.199448 0.480310 1.450425
-0.191939 0.481440 1.453837
-0.184546 0.482969 1.458454
-0.177543 0.485703 1.466710
-0.170381 0.488243 1.474379
-0.163502 0.491886 1.485379
-0.156657 0.496019 1.497862
-0.149847 0.500726 1.512076
-0.144135 0.509872 1.539695
-0.084197 0.505080 1.525223
-0.075319 0.501692 1.514992
-0.066433 0.497402 1.502037
-0.057815 0.494180 1.492307
-0.049294 0.490875 1.482328
-0.040959 0.488467 1.475055
-0.032818 0.487774 1.472963
-0.024704 0.487151 1.471082
-0.016593 0.486013 1.467644
-0.008528 0.485283 1.465442
-0.000487 0.486270 1.468420
0.007595 0.487900 1.473344
0.015742 0.489850 1.479231
0.024009 0.492930 1.488533
0.032444 0.497021 1.500888
0.041075 0.501854 1.515480
0.050013 0.508181 1.534588
-0.296688 0.519162 1.542193
-0.281551 0.507139 1.506478
-0.271040 0.502972 1.494099
-0.260100 0.497725 1.478515
-0.249868 0.493540 1.466084
-0.240853 0.491560 1.460199
-0.232078 0.489948 1.455413
-0.223830 0.489377 1.453715
-0.215607 0.488819 1.452058
-0.207576 0.488668 1.451611
-0.199690 0.488863 1.452190
-0.192220 0.490134 1.455966
-0.184782 0.491598 1.460315
-0.177788 0.494434 1.468738
-0.170716 0.497307 1.477273
-0.163824 0.501022 1.488308
-0.157214 0.506029 1.503183
-0.150884 0.512546 1.522540
-0.075529 0.511427 1.519217
-0.066508 0.506210 1.503720
-0.057789 0.502148 1.491651
-0.049336 0.499426 1.483568
-0.041019 0.497289 1.477218
-0.032776 0.495219 1.471069
-0.024679 0.494718 1.469580
-0.016605 0.494416 1.468685
-0.008533 0.493652 1.466415
-0.000487 0.493636 1.466367
0.007590 0.495612 1.472236
0.015726 0.497444 1.477678
0.023969 0.500265 1.486059
0.032467 0.505613 1.501947
0.041135 0.510920 1.517709
0.050097 0.517463 1.537147
-0.296422 0.527150 1.540808
-0.281364 0.515062 1.505477
-0.270953 0.511006 1.493621
-0.260422 0.506465 1.480347
-0.250168 0.502187 1.467844
-0.240900 0.499670 1.460487
-0.232113 0.498011 1.455638
-0.224000 0.497731 1.454818
-0.215496 0.496530 1.451309
-0.207427 0.496277 1.450570
-0.199673 0.496788 1.452062
-0.191984 0.497510 1.454172
-0.184810 0.499687 1.460535
-0.177801 0.502527 1.468838
-0.170844 0.505793 1.478384
-0.164215 0.510403 1.491859
-0.157749 0.516029 1.508301
-0.151139 0.521783 1.525120
-0.075818 0.521752 1.525029
-0.066770 0.516489 1.509647
-0.058007 0.512256 1.497274
-0.049406 0.508289 1.485679
-0.041017 0.505375 1.477162
-0.032810 0.503811 1.472590
-0.024701 0.503228 1.470885
-0.016603 0.502393 1.468445
-0.008540 0.502080 1.467531
-0.000488 0.502489 1.468726
0.007596 0.504086 1.473395
0.015732 0.505747 1.478249
0.024012 0.509333 1.488732
0.032512 0.514563 1.504017
0.041175 0.519747 1.519171
0.050134 0.526291 1.538296
-0.282992 0.526351 1.514186
-0.271491 0.520233 1.496588
-0.260372 0.514489 1.480062
-0.250146 0.510196 1.467714
-0.241143 0.508195 1.461958
-0.231987 0.505723 1.454845
-0.223482 0.504544 1.451453
-0.215463 0.504415 1.451083
-0.207385 0.504135 1.450278
-0.199913 0.505362 1.453807
-0.192376 0.506522 1.457144
-0.184888 0.507916 1.461153
-0.177987 0.511122 1.470377
-0.171322 0.515343 1.482521
-0.164932 0.520854 1.498374
-0.158389 0.526431 1.514417
-0.152684 0.535569 1.540705
-0.076889 0.537607 1.546568
-0.067047 0.526949 1.515909
-0.058109 0.521389 1.499914
-0.049530 0.517744 1.489427
-0.041037 0.513725 1.477864
-0.032807 0.511846 1.472461
-0.024701 0.511296 1.470879
-0.016601 0.510418 1.468352
-0.008545 0.510455 1.468459
-0.000488 0.510752 1.469313
0.007587 0.511613 1.471789
0.015748 0.514390 1.479777
0.024040 0.518096 1.490439
0.032492 0.522503 1.503118
0.041298 0.529656 1.523694
0.050225 0.535705 1.541096
-0.284422 0.537362 1.521840
-0.271050 0.527588 1.494160
-0.259791 0.521444 1.476760
-0.250152 0.518263 1.467752
-0.241088 0.516099 1.461623
-0.232374 0.514563 1.457274
-0.223829 0.513303 1.453705
-0.215700 0.512941 1.452679
-0.207509 0.512398 1.451140
-0.200025 0.513628 1.454625
-0.192571 0.515038 1.458619
-0.185145 0.516650 1.463182
-0.178045 0.519361 1.470862
-0.171537 0.524134 1.484378
-0.165387 0.530535 1.502505
-0.158581 0.535389 1.516253
-0.067652 0.540096 1.529583
-0.058184 0.530299 1.501839
-0.049513 0.525727 1.488891
-0.041109 0.522750 1.480459
-0.032856 0.520697 1.474644
-0.024742 0.520228 1.473316
-0.016629 0.519342 1.470807
-0.008547 0.518629 1.468789
-0.000488 0.519125 1.470193
0.007595 0.520194 1.473219
0.015754 0.522720 1.480373
0.024002 0.525454 1.488116
0.032517 0.531159 1.504273
0.041422 0.539637 1.528283
0.050353 0.545540 1.545001
-0.285281 0.547359 1.526432
-0.271556 0.536785 1.496944
-0.260787 0.531577 1.482421
-0.250818 0.527717 1.471657
-0.241574 0.525176 1.464570
-0.232718 0.523332 1.459427
-0.223938 0.521535 1.454417
-0.215835 0.521238 1.453588
-0.207736 0.520932 1.452735
-0.200109 0.521829 1.455237
-0.192861 0.523830 1.460817
-0.185216 0.524882 1.463750
-0.178491 0.528753 1.474545
-0.171913 0.533447 1.487636
-0.165656 0.539654 1.504945
-0.160229 0.549360 1.532011
-0.068381 0.554402 1.546073
-0.058475 0.541235 1.509354
-0.049661 0.535497 1.493352
-0.041145 0.531340 1.481759
-0.032887 0.529299 1.476069
-0.024753 0.528547 1.473970
-0.016626 0.527324 1.470561
-0.008555 0.527208 1.470236
-0.000488 0.527405 1.470787
0.007612 0.529477 1.476564
0.015778 0.531641 1.482601
0.024030 0.534238 1.489841
0.032602 0.540822 1.508203
0.041527 0.549411 1.532156
0.050488 0.555508 1.549159
-0.287184 0.559442 1.536615
-0.271978 0.545846 1.499270
-0.260751 0.539638 1.482219
-0.250966 0.536109 1.472526
-0.241259 0.532518 1.462663
-0.232465 0.530762 1.457840
-0.223929 0.529495 1.454359
-0.215884 0.529335 1.453920
-0.208371 0.530519 1.457173
-0.200629 0.531190 1.459016
-0.193125 0.532574 1.462818
-0.185850 0.534736 1.468756
-0.178696 0.537460 1.476237
-0.172332 0.542929 1.491258
-0.166038 0.549178 1.508422
-0.161057 0.560650 1.539933
-0.058836 0.552906 1.518662
-0.049770 0.544882 1.496624
-0.041317 0.541733 1.487974
-0.032958 0.538557 1.479250
-0.024758 0.536755 1.474302
-0.016670 0.536785 1.474385
-0.008567 0.535973 1.472154
-0.000489 0.535952 1.472094
0.007629 0.538797 1.479910
0.015792 0.540248 1.483895
0.024039 0.542604 1.490365
0.032649 0.549896 1.510396
0.041569 0.558383 1.533706
0.050596 0.565214 1.552468
-0.273002 0.556159 1.504916
-0.260595 0.547443 1.481331
-0.251276 0.544861 1.474345
-0.241570 0.541240 1.464548
-0.232441 0.538707 1.457694
-0.224084 0.537847 1.455365
-0.216094 0.537836 1.455335
-0.207882 0.537252 1.453755
-0.200355 0.538461 1.457027
-0.192900 0.539972 1.461116
-0.185729 0.542442 1.467799
-0.178684 0.545524 1.476139
-0.172525 0.551729 1.492931
-0.166993 0.560659 1.517092
-0.164256 0.580404 1.570522
-0.059367 0.566305 1.532371
-0.049934 0.554917 1.501557
-0.041338 0.550168 1.488706
-0.032937 0.546322 1.478297
-0.024787 0.545484 1.476032
-0.016651 0.544262 1.472724
-0.008554 0.543266 1.470028
-0.000489 0.544314 1.472864
0.007615 0.545906 1.477172
0.015807 0.548921 1.485332
0.024123 0.552714 1.495595
0.032716 0.559314 1.513453
0.041654 0.567956 1.536838
0.050849 0.576603 1.560236
-0.275614 0.569817 1.519316
-0.261498 0.557496 1.486463
-0.251047 0.552445 1.472998
-0.241932 0.550099 1.466740
-0.233114 0.548288 1.461913
-0.224315 0.546396 1.456867
-0.216060 0.545736 1.455107
-0.208218 0.546110 1.456104
-0.200536 0.546948 1.458341
-0.192981 0.548217 1.461723
-0.185493 0.549796 1.465933
-0.179166 0.555117 1.480121
-0.172955 0.561318 1.496655
-0.167895 0.572059 1.525293
-0.059760 0.578520 1.542520
-0.050003 0.563943 1.503653
-0.041336 0.558310 1.488634
-0.032956 0.554759 1.479167
-0.024815 0.554200 1.477676
-0.016671 0.553013 1.474512
-0.008560 0.551683 1.470964
-0.000489 0.552695 1.473663
0.007625 0.554767 1.479187
0.015822 0.557582 1.486694
0.024180 0.562252 1.499144
0.032712 0.567549 1.513269
0.041655 0.576404 1.536878
0.050810 0.584710 1.559027
-0.277759 0.582654 1.531142
-0.262658 0.568162 1.493058
-0.251290 0.561071 1.474424
-0.241988 0.558275 1.467078
-0.232777 0.555506 1.459801
-0.224273 0.554286 1.456594
-0.216524 0.554909 1.458232
-0.208153 0.553925 1.455647
-0.200531 0.554935 1.458301
-0.193173 0.556792 1.463179
-0.185961 0.559250 1.469638
-0.179388 0.563935 1.481951
-0.173623 0.571728 1.502429
-0.169149 0.584761 1.536679
-0.060653 0.595751 1.565559
-0.050199 0.574436 1.509546
-0.041433 0.567806 1.492124
-0.032964 0.562996 1.479484
-0.024825 0.562539 1.478281
