# .PCD v0.7 - Point Cloud Data file format
VERSION 0.7
FIELDS x y z
SIZE 4 4 4
TYPE F F F
COUNT 1 1 1
WIDTH 1721
HEIGHT 1
VIEWPOINT 0 0 0 1 0 0 0
POINTS 1721
DATA ascii
-0.074139 0.019236 1.491252
-0.065774 0.019183 1.487139
-0.057722 0.019219 1.489913
-0.049642 0.019255 1.492775
-0.041475 0.019267 1.493650
-0.033262 0.019257 1.492893
-0.025108 0.019286 1.495112
-0.016990 0.019384 1.502725
-0.008804 0.019516 1.512975
-0.000514 0.019958 1.547252
0.008504 0.021279 1.649664
0.017704 0.021458 1.663539
0.026980 0.021577 1.672731
0.036673 0.021884 1.696538
0.046342 0.022055 1.709806
-0.188002 0.031403 1.707960
-0.176624 0.031050 1.688778
-0.166341 0.030862 1.678520
-0.155890 0.030618 1.665265
-0.145691 0.030396 1.653213
-0.136005 0.030260 1.645784
-0.126343 0.030109 1.637591
-0.116734 0.029949 1.628894
-0.106729 0.029653 1.612773
-0.092463 0.028012 1.523525
-0.082526 0.027487 1.494953
-0.074050 0.027385 1.489458
-0.065760 0.027337 1.486801
-0.057714 0.027390 1.489713
-0.049620 0.027435 1.492134
-0.041466 0.027456 1.493314
-0.033266 0.027452 1.493069
-0.025107 0.027488 1.495042
-0.016995 0.027637 1.503157
-0.008891 0.028093 1.527919
-0.000535 0.029650 1.612609
0.008483 0.030256 1.645591
0.017682 0.030549 1.661512
0.026967 0.030740 1.671918
0.036577 0.031111 1.692088
0.046493 0.031539 1.715382
-0.188954 0.040981 1.716608
-0.177218 0.040452 1.694454
-0.166956 0.040220 1.684718
-0.156613 0.039940 1.672987
-0.146269 0.039624 1.659777
-0.136361 0.039393 1.650085
-0.126672 0.039197 1.641860
-0.117036 0.038988 1.633106
-0.104813 0.037811 1.583825
-0.091390 0.035950 1.505852
-0.082502 0.035679 1.494517
-0.074054 0.035560 1.489545
-0.065870 0.035555 1.489308
-0.057691 0.035550 1.489120
-0.049652 0.035645 1.493078
-0.041445 0.035633 1.492585
-0.033241 0.035617 1.491924
-0.025150 0.035753 1.497626
-0.017092 0.036089 1.511698
-0.009065 0.037189 1.557781
-0.000543 0.039077 1.636854
0.008488 0.039309 1.646548
0.017674 0.039646 1.660698
0.026920 0.039845 1.669009
0.036517 0.040329 1.689296
0.047080 0.041469 1.737024
-0.189561 0.050562 1.722121
-0.176885 0.049656 1.691273
-0.166572 0.049350 1.680848
-0.157113 0.049276 1.678323
-0.147423 0.049116 1.672873
-0.136873 0.048629 1.656283
-0.126928 0.048303 1.645172
-0.116748 0.047831 1.629090
-0.101475 0.045021 1.533376
-0.090928 0.043989 1.498228
-0.082277 0.043760 1.490444
-0.073933 0.043662 1.487107
-0.065715 0.043623 1.485784
-0.057552 0.043616 1.485541
-0.049550 0.043747 1.490012
-0.041374 0.043747 1.490015
-0.033177 0.043719 1.489057
-0.025142 0.043956 1.497130
-0.017151 0.044537 1.516916
-0.009263 0.046738 1.591866
-0.000543 0.047984 1.634311
0.008458 0.048172 1.640707
0.017568 0.048467 1.650751
0.026836 0.048850 1.663801
0.036579 0.049683 1.692186
-0.190491 0.060306 1.730568
-0.177849 0.059258 1.700485
-0.167205 0.058796 1.687239
-0.157348 0.058573 1.680838
-0.147478 0.058317 1.673499
-0.137401 0.057940 1.662677
-0.127059 0.057389 1.646871
-0.115788 0.056303 1.615697
-0.100040 0.052679 1.511700
-0.090677 0.052065 1.494091
-0.082119 0.051839 1.487587
-0.073879 0.051784 1.486019
-0.065726 0.051785 1.486033
-0.057510 0.051729 1.484434
-0.049416 0.051783 1.485976
-0.041326 0.051863 1.488294
-0.033234 0.051979 1.491620
-0.025224 0.052343 1.502046
-0.017312 0.053360 1.531230
-0.009391 0.056239 1.613865
-0.000540 0.056728 1.627900
0.008443 0.057075 1.637838
0.017517 0.057357 1.645953
0.026784 0.057866 1.660556
0.036666 0.059109 1.696226
-0.191270 0.070087 1.737646
-0.178212 0.068728 1.703955
-0.167664 0.068241 1.691862
-0.157473 0.067850 1.682167
-0.147388 0.067459 1.672474
-0.137675 0.067197 1.665988
-0.127361 0.066584 1.650788
-0.113749 0.064021 1.587241
-0.099496 0.060642 1.503476
-0.090581 0.060200 1.492511
-0.082146 0.060021 1.488064
-0.073831 0.059899 1.485051
-0.065692 0.059908 1.485286
-0.057482 0.059845 1.483718
-0.049395 0.059911 1.485350
-0.041283 0.059967 1.486734
-0.033296 0.060276 1.494389
-0.025278 0.060713 1.505235
-0.017525 0.062521 1.550058
-0.009418 0.065280 1.618462
-0.000540 0.065634 1.627242
0.008423 0.065902 1.633869
0.017480 0.066249 1.642495
0.026793 0.067001 1.661119
0.036650 0.068386 1.695471
-0.192650 0.080197 1.750184
-0.178256 0.078098 1.704382
-0.168039 0.077698 1.695653
-0.157570 0.077128 1.683208
-0.147668 0.076781 1.675651
-0.137756 0.076383 1.666968
-0.127410 0.075671 1.651429
-0.111228 0.071118 1.552065
-0.099230 0.068708 1.499461
-0.090633 0.068429 1.493364
-0.082099 0.068147 1.487211
-0.073806 0.068025 1.484562
-0.065525 0.067885 1.481502
-0.057503 0.068011 1.484253
-0.049437 0.068120 1.486632
-0.041351 0.068237 1.489174
-0.033387 0.068663 1.498471
-0.025481 0.069525 1.517302
-0.018001 0.072954 1.592118
-0.009411 0.074106 1.617272
-0.000539 0.074358 1.622760
0.008397 0.074636 1.628843
0.017411 0.074967 1.636063
0.026676 0.075784 1.653877
0.036296 0.076939 1.679088
-0.178503 0.087571 1.706741
-0.168040 0.087002 1.695658
-0.157795 0.086487 1.685613
-0.147744 0.086020 1.676515
-0.137716 0.085506 1.666487
-0.126842 0.084355 1.644065
-0.109675 0.078523 1.530396
-0.099142 0.076868 1.498134
-0.090447 0.076466 1.490314
-0.081988 0.076205 1.485214
-0.073738 0.076101 1.483186
-0.065579 0.076077 1.482721
-0.057575 0.076251 1.486116
-0.049528 0.076418 1.489363
-0.041416 0.076529 1.491528
-0.033409 0.076936 1.499466
-0.025667 0.078421 1.528416
-0.018131 0.082282 1.603660
-0.009388 0.082781 1.613385
-0.000538 0.083081 1.619225
0.008380 0.083408 1.625607
0.017392 0.083849 1.634207
0.026594 0.084597 1.648788
0.036236 0.086009 1.676302
-0.179462 0.097457 1.715906
-0.168319 0.096467 1.698479
-0.157949 0.095830 1.687262
-0.147868 0.095299 1.677923
-0.137882 0.094764 1.668496
-0.125550 0.092425 1.627317
-0.108414 0.085921 1.512801
-0.098931 0.084906 1.494936
-0.090367 0.084569 1.488988
-0.081987 0.084353 1.485190
-0.073714 0.084211 1.482696
-0.065613 0.084256 1.483489
-0.057557 0.084379 1.485649
-0.049593 0.084700 1.491299
-0.041508 0.084902 1.494854
-0.033572 0.085579 1.506772
-0.026150 0.088441 1.557173
-0.018163 0.091239 1.606429
-0.009378 0.091532 1.611593
-0.000537 0.091840 1.617019
0.008378 0.092303 1.625164
0.017362 0.092661 1.631466
0.026511 0.093352 1.643645
0.036143 0.094964 1.672014
-0.180024 0.107207 1.721280
-0.168593 0.105958 1.701239
-0.157890 0.105048 1.686625
-0.147908 0.104534 1.678376
-0.137922 0.103949 1.668979
-0.123589 0.099771 1.601896
-0.107803 0.093691 1.504269
-0.098713 0.092905 1.491651
-0.090441 0.092814 1.490199
-0.081933 0.092442 1.484219
-0.073663 0.092283 1.481667
-0.065547 0.092303 1.481989
-0.057486 0.092417 1.483823
-0.049589 0.092876 1.491196
-0.041585 0.093276 1.497615
-0.033878 0.094704 1.520537
-0.026664 0.098893 1.587799
-0.018114 0.099787 1.602144
-0.009366 0.100242 1.609458
-0.000536 0.100631 1.615706
0.008353 0.100918 1.620313
0.017316 0.101343 1.627133
0.026453 0.102149 1.640076
0.036018 0.103778 1.666233
-0.181353 0.117513 1.733988
-0.169002 0.115573 1.705371
-0.158683 0.114877 1.695099
-0.148237 0.113996 1.682103
-0.138042 0.113205 1.670425
-0.120444 0.105799 1.561141
-0.107468 0.101628 1.499597
-0.098774 0.101152 1.492573
-0.090501 0.101059 1.491203
-0.081948 0.100604 1.484488
-0.073738 0.100515 1.483177
-0.065584 0.100492 1.482839
-0.057656 0.100857 1.488225
-0.049640 0.101161 1.492713
-0.041764 0.101931 1.504067
-0.034410 0.104664 1.544388
-0.026871 0.108438 1.600087
-0.018144 0.108758 1.604802
-0.009351 0.108905 1.606978
-0.000535 0.109202 1.611353
0.008333 0.109543 1.616387
0.017270 0.109975 1.622756
0.026331 0.110635 1.632505
0.035868 0.112449 1.659274
-0.183049 0.128215 1.750206
-0.169056 0.124971 1.705916
-0.158634 0.124140 1.694570
-0.148574 0.123507 1.685937
-0.137624 0.122001 1.665373
-0.118192 0.112226 1.531947
-0.107379 0.109766 1.498362
-0.098803 0.109374 1.493011
-0.090385 0.109101 1.489291
-0.082008 0.108829 1.485569
-0.073739 0.108655 1.483197
-0.065645 0.108730 1.484216
-0.057703 0.109112 1.489439
-0.049830 0.109771 1.498425
-0.042088 0.111037 1.515717
-0.035229 0.115833 1.581180
-0.026900 0.117344 1.601805
-0.018125 0.117436 1.603063
-0.009354 0.117756 1.607424
-0.000535 0.117966 1.610299
0.008330 0.118374 1.615867
0.017277 0.118929 1.623441
0.026326 0.119570 1.632193
0.035709 0.121016 1.651937
0.046267 0.125052 1.707026
-0.169790 0.134915 1.713324
-0.158687 0.133483 1.695143
-0.148435 0.132634 1.684359
-0.116965 0.119380 1.516044
-0.107420 0.118032 1.498931
-0.098724 0.117472 1.491810
-0.090118 0.116926 1.484885
-0.081925 0.116862 1.484070
-0.073749 0.116809 1.483397
-0.065817 0.117180 1.488110
-0.057821 0.117523 1.492463
-0.050107 0.118648 1.506754
-0.042857 0.121535 1.543415
-0.035553 0.125653 1.595708
-0.026911 0.126185 1.602457
-0.018101 0.126065 1.600938
-0.009339 0.126376 1.604894
-0.000534 0.126709 1.609120
0.008329 0.127229 1.615720
0.017288 0.127919 1.624488
0.026344 0.128615 1.633319
0.035613 0.129729 1.647471
0.045932 0.133448 1.694702
-0.171115 0.145442 1.726691
-0.158664 0.142763 1.694893
-0.148029 0.141488 1.679745
-0.129897 0.132400 1.571863
-0.116160 0.126820 1.505614
-0.107207 0.126007 1.495960
-0.098509 0.125384 1.488563
-0.090262 0.125274 1.487254
-0.081882 0.124940 1.483292
-0.073768 0.124982 1.483789
-0.065893 0.125490 1.489822
-0.058018 0.126141 1.497555
-0.050519 0.127962 1.519171
-0.043942 0.133295 1.582488
-0.035634 0.134715 1.599347
-0.026888 0.134865 1.601126
-0.018094 0.134801 1.600361
-0.009335 0.135127 1.604229
-0.000534 0.135523 1.608937
0.008309 0.135765 1.611804
0.017265 0.136646 1.622270
0.026300 0.137346 1.630580
0.035615 0.138780 1.647601
0.045627 0.141799 1.683437
-0.172400 0.156080 1.739655
-0.159780 0.153134 1.706821
-0.146583 0.149232 1.663337
-0.126265 0.137083 1.527917
-0.115775 0.134634 1.500622
-0.107188 0.134191 1.495691
-0.098468 0.133497 1.487949
-0.090015 0.133069 1.483181
-0.081933 0.133162 1.484214
-0.073991 0.133527 1.488281
-0.066102 0.134089 1.494555
-0.058390 0.135221 1.507163
-0.051707 0.139501 1.554876
-0.044406 0.143478 1.599196
-0.035653 0.143567 1.600186
-0.026857 0.143486 1.599291
-0.018107 0.143682 1.601475
-0.009338 0.143970 1.604679
-0.000535 0.144476 1.610318
0.008318 0.144762 1.613509
0.017251 0.145430 1.620958
0.026311 0.146355 1.631263
0.035496 0.147326 1.642089
0.045106 0.149311 1.664211
-0.159902 0.162623 1.708124
-0.124775 0.143750 1.509890
-0.115674 0.142742 1.499303
-0.106941 0.142071 1.492252
-0.098328 0.141459 1.485826
-0.090098 0.141339 1.484559
-0.082003 0.141426 1.485473
-0.074143 0.141984 1.491340
-0.066336 0.142792 1.499825
-0.059099 0.145233 1.525461
-0.052738 0.150986 1.585893
-0.044432 0.152344 1.600157
-0.035631 0.152253 1.599200
-0.026878 0.152380 1.600537
-0.018121 0.152587 1.602710
-0.009357 0.153095 1.608041
-0.000535 0.153345 1.610674
0.008327 0.153789 1.615331
0.017259 0.154395 1.621701
0.026319 0.155352 1.631753
0.035513 0.156411 1.642874
0.045090 0.158386 1.663621
0.055651 0.162572 1.707585
-0.133855 0.152943 1.518908
-0.124078 0.151186 1.501458
-0.115533 0.150786 1.497484
-0.106763 0.150008 1.489760
-0.098287 0.149550 1.485212
-0.090185 0.149629 1.485996
-0.082186 0.149910 1.488786
-0.074315 0.150516 1.494800
-0.067016 0.152570 1.515200
-0.060920 0.158337 1.572473
-0.053006 0.160497 1.593928
-0.044379 0.160930 1.598231
-0.035584 0.160817 1.597102
-0.026900 0.161296 1.601856
-0.018129 0.161453 1.603419
-0.009357 0.161905 1.607909
-0.000535 0.162203 1.610869
0.008328 0.162668 1.615488
0.017272 0.163416 1.622919
0.026303 0.164205 1.630746
0.035444 0.165103 1.639667
0.044850 0.166623 1.654761
0.055152 0.170398 1.692252
-0.145638 0.165189 1.555744
-0.132660 0.159838 1.505346
-0.123706 0.158947 1.496957
-0.115089 0.158392 1.491732
-0.106701 0.158091 1.488892
-0.098301 0.157721 1.485413
-0.090190 0.157791 1.486074
-0.082442 0.158573 1.493438
-0.074985 0.160148 1.508265
-0.068907 0.165424 1.557954
-0.061875 0.169582 1.597121
-0.053142 0.169678 1.598027
-0.044365 0.169645 1.597715
-0.035601 0.169659 1.597841
-0.026931 0.170280 1.603689
-0.018127 0.170232 1.603239
-0.009360 0.170793 1.608528
-0.000535 0.171054 1.610985
0.008342 0.171828 1.618273
0.017294 0.172549 1.625064
0.026300 0.173136 1.630585
0.035468 0.174221 1.640805
0.044776 0.175412 1.652027
0.054546 0.177712 1.673682
0.065322 0.182149 1.715478
-0.142123 0.169532 1.518194
-0.132105 0.167395 1.499050
-0.123393 0.166737 1.493166
-0.114818 0.166185 1.488219
-0.106486 0.165925 1.485891
-0.098399 0.166038 1.486903
-0.090561 0.166628 1.492185
-0.082889 0.167671 1.501527
-0.076613 0.172080 1.541009
-0.070349 0.177614 1.590563
-0.061858 0.178297 1.596687
-0.053141 0.178445 1.598010
-0.044421 0.178639 1.599746
-0.035675 0.178800 1.601189
-0.026927 0.179053 1.603449
-0.018139 0.179153 1.604350
-0.009358 0.179585 1.608217
-0.000535 0.179997 1.611911
0.008349 0.180858 1.619621
0.017308 0.181605 1.626308
0.026286 0.181986 1.629722
0.035396 0.182850 1.637453
0.044700 0.184166 1.649243
0.054366 0.186277 1.668143
0.064375 0.188786 1.690610
-0.140581 0.175934 1.501730
-0.131923 0.175378 1.496987
-0.123303 0.174803 1.492075
-0.114829 0.174367 1.488351
-0.106474 0.174060 1.485731
-0.098487 0.174353 1.488232
-0.090786 0.175250 1.495893
-0.083663 0.177553 1.515549
-0.078808 0.185709 1.585166
-0.070564 0.186911 1.595424
-0.061797 0.186872 1.595094
-0.053134 0.187186 1.597777
-0.044392 0.187296 1.598713
-0.035654 0.187474 1.600230
-0.026909 0.187724 1.602366
-0.018137 0.187930 1.604129
-0.009360 0.188433 1.608418
-0.000535 0.188975 1.613042
0.008343 0.189605 1.618422
0.017282 0.190242 1.623859
0.026217 0.190425 1.625424
0.035354 0.191607 1.635508
0.044573 0.192664 1.644530
0.053997 0.194103 1.656813
0.063857 0.196470 1.677020
0.074869 0.201336 1.718556
-0.152198 0.188353 1.535805
-0.140317 0.183828 1.498907
-0.131717 0.183306 1.494651
-0.123150 0.182763 1.490222
-0.114859 0.182582 1.488746
-0.106595 0.182419 1.487422
-0.098841 0.183174 1.493577
-0.091187 0.184269 1.502500
-0.085585 0.190139 1.550365
-0.079220 0.195422 1.593445
-0.070612 0.195799 1.596515
-0.061861 0.195828 1.596757
-0.053085 0.195775 1.596323
-0.044339 0.195835 1.596809
-0.035645 0.196204 1.599819
-0.026911 0.196534 1.602509
-0.018152 0.196902 1.605509
-0.009364 0.197346 1.609134
-0.000535 0.197666 1.611741
0.008330 0.198166 1.615815
0.017287 0.199214 1.624362
0.026211 0.199299 1.625058
0.035292 0.200230 1.632646
0.044465 0.201199 1.640550
0.053817 0.202519 1.651312
0.063510 0.204553 1.667898
0.073920 0.208094 1.696773
-0.149271 0.192995 1.506264
-0.140258 0.191973 1.498282
-0.131413 0.191065 1.491195
-0.123069 0.190814 1.489242
-0.114915 0.190844 1.489473
-0.106805 0.190955 1.490344
-0.099182 0.192029 1.498724
-0.092221 0.194695 1.519530
-0.087584 0.203285 1.586575
-0.079356 0.204517 1.596189
-0.070482 0.204182 1.593574
-0.061693 0.204033 1.592409
-0.053029 0.204318 1.594633
-0.044254 0.204204 1.593743
-0.035571 0.204558 1.596510
-0.026859 0.204930 1.599414
-0.018139 0.205565 1.604369
-0.009350 0.205879 1.606820
-0.000535 0.206523 1.611840
0.008315 0.206659 1.612909
0.017238 0.207534 1.619735
0.026177 0.207943 1.622928
0.035186 0.208560 1.627742
0.044355 0.209682 1.636501
0.053665 0.210982 1.646645
0.063298 0.212994 1.662345
0.073718 0.216813 1.692151
-0.160982 0.205663 1.539215
-0.148664 0.200442 1.500139
-0.140082 0.199942 1.496400
-0.131298 0.199073 1.489892
-0.122836 0.198608 1.486418
-0.114808 0.198831 1.488080
-0.106943 0.199391 1.492277
-0.100042 0.201990 1.511723
-0.095028 0.209214 1.565789
-0.088116 0.213280 1.596220
-0.079281 0.213074 1.594681
-0.070427 0.212760 1.592329
-0.061642 0.212594 1.591090
-0.052979 0.212865 1.593119
-0.044316 0.213244 1.595949
-0.035553 0.213209 1.595688
-0.026838 0.213534 1.598125
-0.018113 0.214054 1.602017
-0.009329 0.214209 1.603176
-0.000533 0.214566 1.605845
0.008310 0.215388 1.611997
0.017203 0.215981 1.616436
0.026164 0.216746 1.622158
0.035172 0.217402 1.627071
0.044288 0.218331 1.634027
0.053553 0.219558 1.643209
0.063005 0.221085 1.654635
0.073126 0.224280 1.678548
0.085320 0.232409 1.739384
-0.158429 0.210714 1.514808
-0.148287 0.208144 1.496332
-0.139342 0.207053 1.488494
-0.130924 0.206659 1.485655
-0.122695 0.206528 1.484716
-0.114864 0.207098 1.488811
-0.107787 0.209218 1.504054
-0.102125 0.214664 1.543207
-0.096497 0.221172 1.589992
-0.087915 0.221532 1.592579
-0.079151 0.221459 1.592054
-0.070362 0.221292 1.590854
-0.061548 0.220988 1.588672
-0.052916 0.221346 1.591243
-0.044237 0.221608 1.593123
-0.035487 0.221553 1.592733
-0.026795 0.221952 1.595596
-0.018091 0.222577 1.600091
-0.009314 0.222653 1.600636
-0.000532 0.223013 1.603228
0.008280 0.223415 1.606117
0.017166 0.224368 1.612965
0.026127 0.225323 1.619829
0.035174 0.226345 1.627182
0.044210 0.226899 1.631163
0.053358 0.227743 1.637230
0.062870 0.229673 1.651102
0.072769 0.232351 1.670353
0.084816 0.240522 1.729099
-0.157467 0.217695 1.505604
-0.148125 0.216118 1.494698
-0.139087 0.214827 1.485770
-0.130656 0.214369 1.482604
-0.122920 0.215069 1.487445
-0.115540 0.216534 1.497574
-0.109306 0.220534 1.525241
-0.105165 0.229774 1.589145
-0.096691 0.230360 1.593198
-0.087857 0.230119 1.591529
-0.079071 0.229964 1.590461
-0.070325 0.229902 1.590032
-0.061488 0.229480 1.587114
-0.052833 0.229714 1.588729
-0.044186 0.230081 1.591266
-0.035439 0.229981 1.590578
-0.026759 0.230397 1.593454
-0.018059 0.230949 1.597272
-0.009305 0.231203 1.599026
-0.000532 0.231776 1.602994
0.008282 0.232296 1.606586
0.017152 0.233038 1.611720
0.026080 0.233788 1.616904
0.035106 0.234821 1.624047
0.044137 0.235458 1.628457
0.053314 0.236529 1.635862
0.062745 0.238257 1.647812
0.072757 0.241478 1.670093
0.083721 0.246782 1.706775
-0.170081 0.231891 1.545149
-0.156652 0.224787 1.497810
-0.147546 0.223444 1.488863
-0.138850 0.222600 1.483238
-0.130680 0.222546 1.482878
-0.123076 0.223514 1.489328
-0.116483 0.226586 1.509801
-0.112579 0.235758 1.570913
-0.106001 0.240389 1.601771
-0.096761 0.239274 1.594339
-0.087755 0.238573 1.589674
-0.078899 0.238171 1.586994
-0.070140 0.237997 1.585836
-0.061474 0.238138 1.586776
-0.052783 0.238207 1.587230
-0.044128 0.238502 1.589197
-0.035370 0.238243 1.587472
-0.026697 0.238586 1.589760
-0.018010 0.239066 1.592960
-0.009288 0.239551 1.596186
-0.000531 0.240137 1.600094
0.008263 0.240553 1.602868
0.017102 0.241169 1.606971
0.026043 0.242319 1.614633
0.035032 0.243219 1.620627
0.044158 0.244512 1.629248
0.053358 0.245710 1.637225
0.062713 0.247172 1.646971
0.072704 0.250458 1.668864
0.083470 0.255380 1.701659
-0.167621 0.236893 1.522799
-0.156402 0.232635 1.495427
-0.147341 0.231291 1.486787
-0.138728 0.230536 1.481937
-0.130944 0.231149 1.485877
-0.123295 0.232097 1.491974
-0.117706 0.237335 1.525642
-0.114307 0.248129 1.595032
-0.105738 0.248561 1.597804
-0.096604 0.247621 1.591760
-0.087637 0.246965 1.587543
-0.078714 0.246301 1.583277
-0.069984 0.246150 1.582310
-0.061368 0.246418 1.584027
-0.052589 0.246008 1.581396
-0.043987 0.246432 1.584118
-0.035339 0.246738 1.586089
-0.026728 0.247597 1.591607
-0.018037 0.248172 1.595307
-0.009290 0.248357 1.596497
-0.000531 0.248600 1.598058
0.008259 0.249223 1.602061
0.017099 0.249939 1.606664
0.025999 0.250753 1.611898
0.034899 0.251153 1.614469
0.044073 0.252962 1.626097
0.053306 0.254446 1.635634
0.062837 0.256714 1.650218
0.072811 0.259997 1.671317
0.083020 0.263289 1.692481
-0.165543 0.242209 1.503926
-0.156173 0.240488 1.493238
-0.147459 0.239641 1.487978
-0.138739 0.238685 1.482046
-0.130973 0.239354 1.486202
-0.123647 0.240971 1.496238
-0.119846 0.250174 1.553382
-0.114621 0.257587 1.599409
-0.105492 0.256730 1.594087
-0.096494 0.256062 1.589941
-0.087559 0.255447 1.586122
-0.078625 0.254700 1.581488
-0.069771 0.254059 1.577505
-0.061187 0.254358 1.579362
-0.052498 0.254245 1.578662
-0.043879 0.254494 1.580209
-0.035271 0.254955 1.583071
-0.026662 0.255692 1.587647
-0.017992 0.256294 1.591381
-0.009265 0.256423 1.592187
-0.000530 0.256903 1.595165
0.008246 0.257619 1.599608
0.017062 0.258199 1.603214
0.025962 0.259227 1.609591
0.034895 0.259980 1.614270
0.043944 0.261121 1.621352
0.053198 0.262885 1.632309
0.062838 0.265774 1.650248
0.072556 0.268227 1.665478
0.083286 0.273450 1.697907
-0.177297 0.255506 1.534221
-0.164735 0.249238 1.496581
-0.155663 0.247869 1.488359
-0.147182 0.247341 1.485188
-0.138742 0.246823 1.482083
-0.130841 0.247260 1.484707
-0.123708 0.249304 1.496977
-0.120193 0.259446 1.557876
-0.114572 0.266249 1.598728
-0.105477 0.265438 1.593859
-0.096563 0.264975 1.591076
-0.087500 0.263972 1.585051
-0.078543 0.263101 1.579826
-0.069698 0.262438 1.575842
-0.061066 0.262503 1.576236
-0.052415 0.262492 1.576166
-0.043822 0.262824 1.578158
-0.035225 0.263296 1.580994
-0.026590 0.263689 1.583356
-0.017922 0.263993 1.585179
-0.009237 0.264360 1.587382
-0.000528 0.264988 1.591157
0.008228 0.265799 1.596024
0.016996 0.265974 1.597078
0.025906 0.267481 1.606123
0.034852 0.268505 1.612275
0.043949 0.270047 1.621532
0.053196 0.271831 1.632246
0.062674 0.274114 1.645950
0.072862 0.278535 1.672499
-0.174434 0.259664 1.509451
-0.164486 0.257061 1.494320
-0.155845 0.256335 1.490100
-0.147086 0.255323 1.484217
-0.138868 0.255187 1.483428
-0.130825 0.255376 1.484523
-0.123338 0.256747 1.492496
-0.119841 0.267211 1.553321
-0.114304 0.274378 1.594987
-0.105421 0.274037 1.593006
-0.096447 0.273378 1.589175
-0.087387 0.272318 1.583011
-0.078504 0.271636 1.579049
-0.069764 0.271341 1.577333
-0.061065 0.271146 1.576197
-0.052295 0.270522 1.572568
-0.043738 0.270966 1.575149
-0.035090 0.270926 1.574919
-0.026461 0.271060 1.575700
-0.017866 0.271833 1.580194
-0.009208 0.272218 1.582433
-0.000526 0.272750 1.585520
0.008209 0.273936 1.592418
0.016990 0.274640 1.596509
0.025871 0.275928 1.603997
0.034885 0.277614 1.613798
0.043940 0.278888 1.621206
0.053206 0.280839 1.632547
0.062562 0.282639 1.643005
0.072966 0.288121 1.674873
-0.185878 0.272582 1.535567
-0.173267 0.266154 1.499352
-0.164183 0.264772 1.491568
-0.155395 0.263746 1.485791
-0.146788 0.262934 1.481214
-0.138792 0.263184 1.482621
-0.130942 0.263758 1.485857
-0.123493 0.265270 1.494375
-0.119601 0.275182 1.550212
-0.114183 0.282831 1.593304
-0.105250 0.282321 1.590428
-0.096191 0.281348 1.584947
-0.087279 0.280657 1.581054
-0.078365 0.279803 1.576245
-0.069634 0.279477 1.574406
-0.060968 0.279352 1.573703
-0.052330 0.279335 1.573607
-0.043652 0.279061 1.572065
-0.035006 0.278903 1.571177
-0.026381 0.278856 1.570907
-0.017807 0.279582 1.575002
-0.009187 0.280239 1.578700
-0.000525 0.280619 1.580840
0.008176 0.281534 1.585994
0.016978 0.283201 1.595385
0.025897 0.285012 1.605589
0.034852 0.286200 1.612282
0.044007 0.288223 1.623675
0.053297 0.290293 1.635337
0.062828 0.292894 1.649990
0.073267 0.298537 1.681780
-0.182522 0.275935 1.507846
-0.172924 0.273838 1.496384
-0.164085 0.272794 1.490680
-0.154965 0.271148 1.481688
-0.146743 0.270978 1.480756
-0.138534 0.270814 1.479864
-0.130578 0.271154 1.481720
-0.123320 0.273087 1.492284
-0.119516 0.283486 1.549109
-0.114129 0.291436 1.592552
-0.104991 0.290330 1.586506
-0.096106 0.289788 1.583544
-0.087262 0.289276 1.580749
-0.078396 0.288568 1.576876
-0.069547 0.287757 1.572444
-0.060890 0.287618 1.571689
-0.052295 0.287780 1.572574
-0.043564 0.287107 1.568895
-0.034940 0.286975 1.568175
-0.026396 0.287638 1.571795
-0.017791 0.287959 1.573550
-0.009178 0.288628 1.577207
-0.000524 0.288814 1.578225
0.008166 0.289884 1.584070
0.016965 0.291730 1.594157
0.025864 0.293444 1.603525
0.034863 0.295143 1.612809
0.044073 0.297578 1.626111
0.053384 0.299756 1.638015
0.063142 0.303455 1.658227
0.073765 0.309858 1.693219
-0.194166 0.289229 1.534479
-0.181811 0.283100 1.501966
-0.172680 0.281650 1.494271
-0.163631 0.280196 1.486555
-0.155020 0.279377 1.482211
-0.146796 0.279205 1.481296
-0.138618 0.279104 1.480762
-0.130650 0.279439 1.482540
-0.123205 0.281012 1.490885
-0.119862 0.292830 1.553586
-0.113913 0.299607 1.589539
-0.104958 0.298942 1.586012
-0.095992 0.298125 1.581675
-0.087082 0.297334 1.577479
-0.078295 0.296837 1.574845
-0.069561 0.296443 1.572755
-0.060858 0.296088 1.570871
-0.052218 0.295973 1.570261
-0.043526 0.295457 1.567521
-0.034881 0.295086 1.565555
-0.026311 0.295315 1.566768
-0.017750 0.295919 1.569973
-0.009162 0.296757 1.574421
-0.000524 0.297423 1.577955
0.008157 0.298253 1.582355
0.016937 0.299977 1.591504
0.025864 0.302245 1.603534
0.034953 0.304776 1.616961
0.044299 0.308067 1.634422
0.053707 0.310611 1.647922
0.063500 0.314325 1.667625
-0.191238 0.293159 1.511336
-0.180826 0.289764 1.493833
-0.171701 0.288206 1.485801
-0.162986 0.287215 1.480689
-0.154940 0.287362 1.481449
-0.146613 0.286974 1.479447
-0.138513 0.287011 1.479636
-0.130605 0.287476 1.482033
-0.123280 0.289368 1.491791
-0.120241 0.302310 1.558509
-0.113882 0.308245 1.589107
-0.104800 0.307183 1.583631
-0.095928 0.306599 1.580620
-0.087015 0.305754 1.576266
-0.078205 0.305126 1.573029
-0.069555 0.305047 1.572617
-0.060915 0.304994 1.572344
-0.052167 0.304290 1.568718
-0.043539 0.304149 1.567993
-0.034890 0.303755 1.565959
-0.026278 0.303525 1.564774
-0.017734 0.304245 1.568485
-0.009135 0.304503 1.569815
-0.000523 0.305733 1.576157
0.008158 0.306973 1.582550
0.016925 0.308480 1.590316
0.025867 0.311082 1.603734
0.035047 0.314490 1.621303
0.044487 0.318384 1.641378
0.054249 0.322882 1.664566
0.064429 0.328210 1.692035
-0.189670 0.298981 1.498943
-0.180114 0.296788 1.487952
-0.171106 0.295333 1.480655
-0.162739 0.294892 1.478446
-0.154716 0.295064 1.479305
-0.146575 0.295014 1.479058
-0.138252 0.294573 1.476844
-0.130247 0.294796 1.477964
-0.123663 0.298480 1.496436
-0.121271 0.313522 1.571848
-0.113789 0.316706 1.587810
-0.104832 0.315968 1.584108
-0.095987 0.315465 1.581591
-0.087119 0.314779 1.578148
-0.078154 0.313553 1.572002
-0.069521 0.313521 1.571842
-0.060874 0.313409 1.571281
-0.052152 0.312809 1.568270
-0.043513 0.312566 1.567056
-0.034897 0.312412 1.566282
-0.026291 0.312274 1.565591
-0.017710 0.312443 1.566439
-0.009122 0.312668 1.567565
-0.000522 0.313615 1.572314
0.008153 0.315458 1.581553
0.016928 0.317273 1.590652
0.025917 0.320496 1.606810
0.035229 0.325070 1.629745
0.044971 0.330950 1.659224
0.054875 0.335843 1.683752
-0.200713 0.311580 1.520288
-0.189228 0.306490 1.495450
-0.179982 0.304728 1.486857
-0.171168 0.303567 1.481189
-0.162718 0.302966 1.478257
-0.154525 0.302806 1.477479
-0.146286 0.302532 1.476141
-0.138468 0.303149 1.479153
-0.130560 0.303635 1.481524
-0.124418 0.308562 1.505561
-0.121870 0.323739 1.579616
-0.113656 0.325038 1.585954
-0.104775 0.324485 1.583254
-0.095841 0.323651 1.579187
-0.086986 0.322946 1.575745
-0.078157 0.322191 1.572062
-0.069408 0.321625 1.569301
-0.060785 0.321560 1.568982
-0.052040 0.320724 1.564907
-0.043372 0.320121 1.561963
-0.034799 0.320105 1.561882
-0.026214 0.319924 1.561000
-0.017660 0.320115 1.561932
-0.009103 0.320612 1.564360
-0.000522 0.322121 1.571719
0.008141 0.323654 1.579202
0.016958 0.326586 1.593507
0.025984 0.330172 1.611005
0.035294 0.334628 1.632746
0.045452 0.343694 1.676983
-0.201106 0.320549 1.523267
-0.189495 0.315140 1.497564
-0.180267 0.313383 1.489216
-0.171440 0.312189 1.483543
-0.162943 0.311507 1.480298
-0.154642 0.311149 1.478596
-0.146401 0.310878 1.477309
-0.138478 0.311289 1.479263
-0.130828 0.312402 1.484555
-0.125313 0.319103 1.516396
-0.121956 0.332642 1.580737
-0.113368 0.332892 1.581923
-0.104536 0.332411 1.579636
-0.095597 0.331471 1.575170
-0.086880 0.331188 1.573823
-0.078129 0.330700 1.571505
-0.069279 0.329619 1.566368
-0.060757 0.330016 1.568253
-0.052071 0.329505 1.565826
-0.043396 0.328872 1.562819
-0.034757 0.328271 1.559961
-0.026211 0.328451 1.560817
-0.017687 0.329200 1.564377
-0.009113 0.329559 1.566084
-0.000522 0.331018 1.573018
0.008151 0.332709 1.581051
0.016974 0.335627 1.594919
0.026001 0.339227 1.612029
0.035396 0.344579 1.637459
0.046217 0.358834 1.705202
-0.201595 0.329707 1.526970
-0.189185 0.322829 1.495117
-0.180383 0.321762 1.490175
-0.171458 0.320363 1.483697
-0.163187 0.320109 1.482519
-0.154874 0.319740 1.480810
-0.147214 0.320754 1.485507
-0.138908 0.320397 1.483854
-0.131180 0.321411 1.488551
-0.126836 0.331404 1.534831
-0.122351 0.342422 1.585858
-0.113344 0.341502 1.581599
-0.104341 0.340441 1.576686
-0.095454 0.339602 1.572800
-0.086804 0.339526 1.572448
-0.078076 0.339095 1.570448
-0.069336 0.338495 1.567672
-0.060692 0.338256 1.566566
-0.052017 0.337745 1.564199
-0.043317 0.336840 1.560004
-0.034768 0.336938 1.560462
-0.026213 0.337031 1.560893
-0.017695 0.337931 1.565061
-0.009116 0.338239 1.566488
-0.000522 0.339245 1.571144
0.008150 0.341362 1.580950
0.016961 0.344124 1.593741
0.026015 0.348258 1.612886
0.035795 0.357552 1.655931
-0.201718 0.338292 1.527904
-0.189166 0.330999 1.494963
-0.180263 0.329719 1.489184
-0.171760 0.329083 1.486312
-0.163743 0.329362 1.487569
-0.155227 0.328614 1.484191
-0.147510 0.329568 1.488500
-0.139539 0.330033 1.490602
-0.131300 0.329882 1.489918
-0.127026 0.340333 1.537121
-0.122095 0.350389 1.582540
-0.113166 0.349631 1.579115
-0.104163 0.348498 1.573997
-0.095290 0.347636 1.570106
-0.086601 0.347340 1.568771
-0.077920 0.347017 1.567311
-0.069239 0.346608 1.565464
-0.060577 0.346196 1.563600
-0.051926 0.345721 1.561455
-0.043302 0.345278 1.559456
-0.034771 0.345534 1.560612
-0.026203 0.345472 1.560330
-0.017672 0.346065 1.563009
-0.009122 0.347063 1.567519
-0.000522 0.347877 1.571195
0.008151 0.350076 1.581127
0.016947 0.352575 1.592411
0.025996 0.356854 1.611737
0.035747 0.366146 1.653705
0.045899 0.374949 1.693467
-0.201477 0.346262 1.526078
-0.189361 0.339551 1.496501
-0.180713 0.338734 1.492901
-0.171984 0.337678 1.488246
-0.164132 0.338326 1.491102
-0.155743 0.337877 1.489123
-0.147813 0.338428 1.491554
-0.139748 0.338719 1.492833
-0.130930 0.337105 1.485723
-0.125734 0.345222 1.521496
-0.121989 0.358760 1.581163
-0.113030 0.357863 1.577207
-0.104015 0.356629 1.571769
-0.095220 0.355988 1.568944
-0.086564 0.355795 1.568095
-0.077785 0.354998 1.564580
-0.069104 0.354505 1.562410
-0.060452 0.354046 1.560386
-0.051845 0.353742 1.559045
-0.043294 0.353769 1.559167
-0.034774 0.354123 1.560727
-0.026187 0.353810 1.559348
-0.017650 0.354210 1.561108
-0.009113 0.355350 1.566133
-0.000521 0.356180 1.569791
0.008135 0.358052 1.578043
0.016963 0.361661 1.593945
0.026064 0.366656 1.615963
0.035863 0.376433 1.659054
0.044719 0.374363 1.649927
-0.199283 0.350774 1.509463
-0.189755 0.348487 1.499619
-0.181502 0.348440 1.499420
-0.172136 0.346149 1.489560
-0.164964 0.348264 1.498660
-0.155958 0.346526 1.491181
-0.148238 0.347608 1.495839
-0.141206 0.350529 1.508406
-0.132511 0.349426 1.503662
-0.127904 0.359673 1.547755
-0.121908 0.367191 1.580107
-0.112753 0.365619 1.573344
-0.103912 0.364889 1.570201
-0.095052 0.363955 1.566183
-0.086421 0.363797 1.565503
-0.077726 0.363309 1.563404
-0.068947 0.362255 1.558865
-0.060338 0.361925 1.557445
-0.051781 0.361843 1.557092
-0.043220 0.361701 1.556484
-0.034726 0.362191 1.558591
-0.026167 0.362095 1.558179
-0.017668 0.363149 1.562716
-0.009099 0.363360 1.563621
-0.000521 0.364615 1.569023
0.008131 0.366522 1.577230
0.016935 0.369790 1.591291
0.026099 0.376026 1.618128
0.035939 0.386352 1.662562
-0.200171 0.360656 1.516186
-0.190393 0.357915 1.504663
-0.182077 0.357797 1.504165
-0.172854 0.355802 1.495780
-0.166253 0.359274 1.510375
-0.157401 0.357990 1.504977
-0.149224 0.358185 1.505796
-0.145364 0.369370 1.552817
-0.139438 0.376373 1.582259
-0.130738 0.376323 1.582049
-0.121670 0.375127 1.577022
-0.112666 0.373964 1.572132
-0.103648 0.372559 1.566224
-0.094838 0.371712 1.562664
-0.086199 0.371431 1.561482
-0.077612 0.371342 1.561110
-0.068931 0.370723 1.558509
-0.060339 0.370474 1.557459
-0.051740 0.370096 1.555870
-0.043210 0.370162 1.556146
-0.034708 0.370553 1.557793
-0.026168 0.370657 1.558231
-0.017632 0.370952 1.559469
-0.009097 0.371884 1.563386
-0.000522 0.374213 1.573180
0.008162 0.376595 1.583191
0.016986 0.379669 1.596117
0.026217 0.386640 1.625421
0.036103 0.397284 1.670168
0.046233 0.405757 1.705788
-0.194353 0.373786 1.535954
-0.185569 0.373071 1.533017
-0.143169 0.395358 1.624594
-0.131421 0.387015 1.590312
-0.121801 0.384196 1.578729
-0.112573 0.382275 1.570834
-0.103572 0.380872 1.565071
-0.094753 0.379942 1.561249
-0.086072 0.379438 1.559179
-0.077597 0.379833 1.560800
-0.068870 0.378937 1.557118
-0.060333 0.378985 1.557316
-0.051726 0.378529 1.555441
-0.043201 0.378619 1.555810
-0.034668 0.378663 1.555995
-0.026162 0.379120 1.557873
-0.017655 0.380001 1.561492
-0.009111 0.381043 1.565772
-0.000523 0.383050 1.574019
0.008160 0.385199 1.582853
0.017018 0.389150 1.599085
0.026295 0.396741 1.630280
0.036796 0.414249 1.702221
0.054126 0.404163 1.660779
-0.143753 0.405922 1.631227
-0.131315 0.395421 1.589027
-0.121714 0.392578 1.577600
-0.112402 0.390302 1.568454
-0.103556 0.389398 1.564820
-0.094825 0.388806 1.562443
-0.086087 0.388064 1.559461
-0.077442 0.387625 1.557697
-0.068932 0.387831 1.558523
-0.060319 0.387440 1.556953
-0.051731 0.387100 1.555588
-0.043172 0.386896 1.554769
-0.034697 0.387526 1.557298
-0.026194 0.388151 1.559809
-0.017678 0.389089 1.563581
-0.009105 0.389361 1.564673
-0.000521 0.390810 1.570497
0.008173 0.394508 1.585358
0.017055 0.398795 1.602584
0.026365 0.406755 1.634574
0.036260 0.417416 1.677415
0.045398 0.416813 1.674993
-0.307681 0.508233 1.998305
-0.288262 0.493751 1.941365
-0.143641 0.414551 1.629959
-0.131468 0.404612 1.590883
-0.121503 0.400538 1.574864
-0.112336 0.398673 1.567528
-0.103377 0.397296 1.562114
-0.094642 0.396614 1.559436
-0.086030 0.396356 1.558420
-0.077357 0.395736 1.555981
-0.068871 0.396032 1.557148
-0.060300 0.395856 1.556452
-0.051754 0.395812 1.556281
-0.043268 0.396310 1.558238
-0.034742 0.396586 1.559325
-0.026167 0.396295 1.558180
-0.017669 0.397459 1.562757
-0.009118 0.398535 1.566988
-0.000522 0.400027 1.572852
0.008186 0.403869 1.587959
0.017083 0.408245 1.605168
0.026445 0.416993 1.639563
0.036673 0.431485 1.696543
-0.322970 0.508736 1.958040
-0.312321 0.508891 1.958637
-0.301572 0.508889 1.958630
-0.290960 0.509126 1.959539
-0.288034 0.523345 2.014265
-0.143216 0.422240 1.625132
-0.131396 0.413115 1.590009
-0.121725 0.409927 1.577739
-0.112388 0.407464 1.568260
-0.103335 0.405702 1.561480
-0.094622 0.405085 1.559103
-0.086112 0.405295 1.559911
-0.077426 0.404632 1.557361
-0.068813 0.404236 1.555836
-0.060272 0.404210 1.555738
-0.051723 0.404109 1.555349
-0.043270 0.404878 1.558307
-0.034722 0.404910 1.558431
-0.026154 0.404640 1.557392
-0.017659 0.405810 1.561894
-0.009106 0.406592 1.564903
-0.000523 0.409515 1.576153
0.008196 0.413073 1.589849
0.017095 0.417361 1.606353
0.026393 0.425153 1.636343
0.036700 0.441119 1.697794
-0.322528 0.518770 1.955363
-0.312320 0.519637 1.958633
-0.300950 0.518563 1.954585
-0.290621 0.519272 1.957256
-0.131902 0.423462 1.596126
-0.121591 0.418125 1.576007
-0.112568 0.416735 1.570768
-0.103565 0.415195 1.564965
-0.094601 0.413546 1.558751
-0.085945 0.413051 1.556883
-0.077256 0.412270 1.553941
-0.068838 0.412926 1.556412
-0.060289 0.412866 1.556186
-0.051777 0.413075 1.556975
-0.043237 0.413113 1.557118
-0.034725 0.413495 1.558559
-0.026223 0.414280 1.561515
-0.017689 0.415075 1.564511
-0.009144 0.416897 1.571379
-0.000525 0.419248 1.580243
0.008218 0.422952 1.594203
0.017106 0.426434 1.607327
0.026360 0.433593 1.634313
0.036462 0.447513 1.686779
-0.322242 0.529030 1.953629
-0.312168 0.530127 1.957681
-0.301321 0.529942 1.956997
-0.291224 0.531111 1.961314
-0.132486 0.434137 1.603202
-0.121598 0.426797 1.576099
-0.112374 0.424619 1.568054
-0.103489 0.423469 1.563809
-0.094574 0.421980 1.558310
-0.086001 0.421869 1.557901
-0.077283 0.420943 1.554482
-0.068823 0.421375 1.556076
-0.060259 0.421193 1.555402
-0.051648 0.420572 1.553112
-0.043151 0.420813 1.554002
-0.034719 0.421975 1.558292
-0.026214 0.422710 1.561005
-0.017692 0.423746 1.564833
-0.009151 0.425857 1.572626
-0.000526 0.428843 1.583653
0.008224 0.432010 1.595348
0.017134 0.435983 1.610022
0.026297 0.441501 1.630398
0.036347 0.455327 1.681455
-0.301144 0.540362 1.955846
-0.291301 0.542017 1.961837
-0.132392 0.442617 1.602056
-0.121527 0.435189 1.575171
-0.112362 0.433177 1.567888
-0.103509 0.432136 1.564121
-0.094592 0.430613 1.558607
-0.085942 0.430123 1.556836
-0.077261 0.429353 1.554049
-0.068787 0.429684 1.555247
-0.060230 0.429517 1.554641
-0.051698 0.429509 1.554614
-0.043186 0.429692 1.555274
-0.034682 0.430059 1.556602
-0.026201 0.431051 1.560195
-0.017716 0.432921 1.566961
-0.009139 0.433901 1.570508
-0.000526 0.437447 1.583344
0.008221 0.440583 1.594693
0.017129 0.444684 1.609537
0.026361 0.451537 1.634342
0.036590 0.467662 1.692708
-0.133963 0.456763 1.621064
-0.121947 0.445367 1.580617
-0.112671 0.442997 1.572206
-0.103515 0.440744 1.564211
-0.094572 0.439071 1.558275
-0.085831 0.438097 1.554819
-0.077189 0.437471 1.552594
-0.068698 0.437653 1.553242
-0.060186 0.437732 1.553521
-0.051662 0.437731 1.553517
-0.043221 0.438585 1.556548
-0.034696 0.438779 1.557237
-0.026249 0.440427 1.563085
-0.017737 0.442035 1.568793
-0.009161 0.443589 1.574308
-0.000526 0.446544 1.584797
0.008212 0.448855 1.592999
0.017072 0.452012 1.604201
0.026309 0.459596 1.631116
0.036393 0.474375 1.683568
-0.135094 0.469593 1.634761
-0.122355 0.455558 1.585902
-0.112511 0.450981 1.569968
-0.103326 0.448505 1.561352
-0.094550 0.447518 1.557914
-0.085885 0.446909 1.555793
-0.077227 0.446214 1.553373
-0.068665 0.445961 1.552494
-0.060217 0.446483 1.554312
-0.051674 0.446365 1.553901
-0.043207 0.446976 1.556027
-0.034776 0.448357 1.560835
-0.026282 0.449562 1.565028
-0.017740 0.450726 1.569081
-0.009169 0.452611 1.575643
-0.000526 0.455415 1.585406
0.008224 0.458234 1.595219
0.017115 0.461973 1.608234
0.026395 0.470078 1.636449
0.036931 0.490760 1.708449
-0.135978 0.481694 1.645455
-0.122757 0.465785 1.591112
-0.112414 0.459200 1.568618
-0.103318 0.457037 1.561229
-0.094548 0.456058 1.557884
-0.085860 0.455315 1.555347
-0.077236 0.454788 1.553546
-0.068674 0.454537 1.552688
-0.060132 0.454375 1.552137
-0.051626 0.454462 1.552434
-0.043183 0.455263 1.555168
-0.034725 0.456254 1.558556
-0.026235 0.457323 1.562206
-0.017757 0.459774 1.570577
-0.009161 0.460842 1.574229
-0.000526 0.463831 1.584438
0.008206 0.466010 1.591882
0.017103 0.470456 1.607070
0.026338 0.478022 1.632914
0.036799 0.498346 1.702340
-0.123601 0.477778 1.602050
-0.112520 0.468250 1.570102
-0.103389 0.465925 1.562306
-0.094524 0.464487 1.557486
-0.085860 0.463852 1.555356
-0.077244 0.463362 1.553714
-0.068621 0.462705 1.551508
-0.060179 0.463250 1.553336
-0.051753 0.464120 1.556254
-0.043228 0.464273 1.556766
-0.034723 0.464773 1.558445
-0.026269 0.466504 1.564250
-0.017765 0.468589 1.571239
-0.009165 0.469688 1.574924
-0.000526 0.472372 1.583924
0.008210 0.474979 1.592667
0.017083 0.478729 1.605242
0.026280 0.485911 1.629322
0.036541 0.504130 1.690412
-0.124775 0.491189 1.617265
-0.112914 0.478532 1.575591
-0.103578 0.475363 1.565157
-0.094616 0.473493 1.558998
-0.085771 0.471897 1.553743
-0.077229 0.471796 1.553412
-0.068727 0.471940 1.553887
-0.060213 0.472039 1.554212
-0.051691 0.472097 1.554402
-0.043185 0.472352 1.555243
-0.034735 0.473489 1.558986
-0.026268 0.475062 1.564166
-0.017750 0.476812 1.569927
-0.009146 0.477360 1.571732
-0.000525 0.480647 1.582555
0.008203 0.483267 1.591181
0.017114 0.488407 1.608106
0.026336 0.495904 1.632788
0.036478 0.512523 1.687506
-0.125302 0.502178 1.624103
-0.113425 0.489384 1.582727
-0.103691 0.484482 1.566872
-0.094816 0.483068 1.562299
-0.085962 0.481492 1.557203
-0.077380 0.481254 1.556432
-0.068708 0.480336 1.553465
-0.060171 0.480236 1.553139
-0.051661 0.480346 1.553496
-0.043160 0.480609 1.554348
-0.034738 0.482090 1.559137
-0.026260 0.483514 1.563741
-0.017747 0.485338 1.569640
-0.009167 0.487102 1.575347
-0.000526 0.490156 1.585224
0.008214 0.492655 1.593306
0.017132 0.497751 1.609785
0.026413 0.506352 1.637603
0.036344 0.519870 1.681323
-0.127305 0.519260 1.650067
-0.113931 0.500291 1.589790
-0.103799 0.493593 1.568503
-0.094877 0.491956 1.563303
-0.086025 0.490394 1.558339
-0.077264 0.489060 1.554101
-0.068667 0.488567 1.552532
-0.060229 0.489223 1.554618
-0.051822 0.490395 1.558342
-0.043210 0.489696 1.556121
-0.034728 0.490495 1.558658
-0.026266 0.492200 1.564079
-0.017761 0.494363 1.570952
-0.009175 0.496163 1.576670
-0.000526 0.498227 1.583231
0.008219 0.501743 1.594403
0.017130 0.506536 1.609633
0.026416 0.515395 1.637784
0.036495 0.531288 1.688289
-0.114712 0.512503 1.600684
-0.104063 0.503476 1.572491
-0.095009 0.501229 1.565474
-0.086025 0.498944 1.558338
-0.077342 0.498090 1.555670
-0.068734 0.497576 1.554063
-0.060257 0.497989 1.555354
-0.051879 0.499491 1.560046
-0.043273 0.498966 1.558406
-0.034707 0.498748 1.557725
-0.026252 0.500522 1.563266
-0.017766 0.503100 1.571315
-0.009184 0.505309 1.578215
-0.000526 0.507086 1.583765
0.008230 0.511149 1.596457
0.017165 0.516431 1.612952
0.026527 0.526578 1.644644
0.036378 0.538820 1.682881
-0.115617 0.525398 1.613310
-0.104581 0.514653 1.580316
-0.095039 0.509980 1.565969
-0.086211 0.508594 1.561713
-0.077353 0.506702 1.555903
-0.068658 0.505544 1.552345
-0.060184 0.505909 1.553466
-0.051806 0.507334 1.557843
-0.043215 0.506838 1.556321
-0.034787 0.508462 1.561307
-0.026297 0.509974 1.565950
-0.017754 0.511391 1.570302
-0.009168 0.513094 1.575529
-0.000525 0.515353 1.582466
0.008219 0.519244 1.594415
0.017192 0.526094 1.615447
0.026727 0.539637 1.657034
0.036892 0.555803 1.706673
-0.116142 0.536676 1.620635
-0.105210 0.526470 1.589815
-0.095081 0.518803 1.566664
-0.086162 0.516866 1.560815
-0.077376 0.515391 1.556360
-0.068724 0.514550 1.553820
-0.060219 0.514733 1.554374
-0.051806 0.515889 1.557864
-0.043247 0.515754 1.557457
-0.034828 0.517643 1.563162
-0.026322 0.519046 1.567396
-0.017745 0.519753 1.569533
-0.009152 0.520809 1.572722
-0.000526 0.524649 1.584318
0.008249 0.529871 1.600085
0.017296 0.538184 1.625191
0.026824 0.550713 1.663025
0.036605 0.560771 1.693398
-0.116715 0.548262 1.628636
-0.105439 0.536357 1.593273
-0.095162 0.527846 1.567990
-0.086127 0.525221 1.560193
-0.077526 0.524948 1.559382
-0.068815 0.523774 1.555893
-0.060307 0.524027 1.556647
-0.051784 0.524211 1.557191
-0.043336 0.525380 1.560665
-0.034857 0.526657 1.564458
-0.026358 0.528382 1.569581
-0.017778 0.529329 1.572395
-0.009168 0.530386 1.575534
-0.000527 0.533925 1.586046
0.008260 0.539365 1.602208
0.017297 0.547158 1.625356
0.026975 0.563001 1.672421
-0.116647 0.556872 1.627682
-0.105684 0.546371 1.596988
-0.095672 0.539327 1.576401
-0.086302 0.534865 1.563357
-0.077606 0.534052 1.560983
-0.068917 0.533099 1.558197
-0.060354 0.532982 1.557855
-0.051773 0.532649 1.556880
-0.043327 0.533836 1.560351
-0.034839 0.534966 1.563654
-0.026367 0.537164 1.570078
-0.017781 0.538043 1.572646
-0.009180 0.539744 1.577619
-0.000528 0.543640 1.589007
0.008263 0.548393 1.602898
0.017202 0.553008 1.616387
0.026657 0.565426 1.652684
-0.117327 0.569102 1.637172
-0.105939 0.556470 1.600833
-0.096178 0.550873 1.584731
-0.086604 0.545347 1.568834
-0.077704 0.543306 1.562961
-0.068938 0.541812 1.558665
-0.060383 0.541786 1.558591
-0.051827 0.541747 1.558477
-0.043318 0.542279 1.560007
-0.034926 0.544911 1.567580
-0.026364 0.545729 1.569933
-0.017793 0.547059 1.573760
-0.009183 0.548586 1.578153
-0.000526 0.551085 1.585341
0.008245 0.555992 1.599458
0.017210 0.562129 1.617113
0.026747 0.576443 1.658291
-0.118547 0.584099 1.654202
-0.106118 0.566208 1.603535
-0.096458 0.561200 1.589352
-0.087100 0.557124 1.577807
-0.078031 0.554205 1.569541
-0.069221 0.552624 1.565065
-0.060556 0.551917 1.563062
-0.051947 0.551580 1.562106
-0.043407 0.551978 1.563235
-0.034957 0.554005 1.568975
-0.026388 0.554841 1.571343
-0.017785 0.555452 1.573073
-0.009167 0.556266 1.575379
-0.000526 0.559946 1.585800
0.008245 0.564761 1.599435
0.017215 0.571169 1.617584
0.026604 0.582413 1.649428
-0.106490 0.577024 1.609160
-0.096692 0.571306 1.593213
-0.087544 0.568666 1.585851
-0.078371 0.565266 1.576369
-0.069516 0.563602 1.571730
-0.060689 0.561730 1.566509
-0.051980 0.560505 1.563094
-0.043431 0.560860 1.564084
-0.034941 0.562346 1.568226
-0.026355 0.562757 1.569374
-0.017770 0.563608 1.571746
-0.009159 0.564424 1.574021
-0.000525 0.567591 1.582854
0.008241 0.573222 1.598556
0.017167 0.578437 1.613099
0.026419 0.587344 1.637940
-0.107558 0.591731 1.625302
-0.096873 0.581131 1.596187
-0.087481 0.576950 1.584705
-0.078454 0.574524 1.578041
-0.069618 0.573069 1.574044
-0.060844 0.571775 1.570490
-0.052156 0.571002 1.568368
-0.043447 0.569653 1.564661
-0.034907 0.570397 1.566707
-0.026327 0.570762 1.567708
-0.017748 0.571493 1.569717
-0.009144 0.572068 1.571296
-0.000524 0.574886 1.579036
0.008231 0.581278 1.596592
0.017108 0.585261 1.607531
0.026346 0.594694 1.633441
0.035752 0.602145 1.653908
-0.097305 0.592520 1.603307
-0.087210 0.583834 1.579802
-0.078153 0.580950 1.571998
-0.069552 0.581156 1.572557
-0.060911 0.581036 1.572231
-0.052321 0.581448 1.573346
-0.043470 0.578553 1.565513
-0.034916 0.579147 1.567119
-0.026320 0.579216 1.567306
-0.017718 0.579136 1.567090
-0.009136 0.580237 1.570069
-0.000524 0.583088 1.577783
0.008192 0.587238 1.589014
0.017032 0.591435 1.600371
0.026185 0.599962 1.623443
-0.097271 0.601107 1.602745
-0.087202 0.592451 1.579666
-0.078192 0.589864 1.572766
-0.069474 0.589117 1.570775
-0.060832 0.588901 1.570201
-0.052223 0.588976 1.570401
-0.043427 0.586560 1.563958
-0.034817 0.586074 1.562663
-0.026278 0.586875 1.564797
-0.017692 0.586888 1.564834
-0.009111 0.587198 1.565658
-0.000523 0.590670 1.574916
0.008183 0.595368 1.587443
0.017018 0.599744 1.599112
0.026168 0.608470 1.622378
-0.097463 0.611108 1.605916
-0.087221 0.601249 1.580007
-0.078196 0.598528 1.572856
-0.069385 0.596976 1.568778
-0.060739 0.596604 1.567802
-0.052160 0.596868 1.568495
-0.043457 0.595551 1.565033
-0.034858 0.595351 1.564508
-0.026286 0.595638 1.565263
-0.017677 0.594974 1.563518
-0.009105 0.595439 1.564739
-0.000521 0.597687 1.570646
0.008177 0.603577 1.586125
0.017005 0.608065 1.597919
0.026027 0.614051 1.613650
0.036604 0.644377 1.693343
-0.098845 0.628711 1.628689
-0.087350 0.610815 1.582330
-0.078228 0.607404 1.573493
-0.069421 0.605895 1.569583
-0.060724 0.605053 1.567403
-0.052150 0.605364 1.568208
-0.043524 0.605072 1.567453
-0.034876 0.604253 1.565331
-0.026256 0.603540 1.563483
-0.017662 0.603033 1.562171
-0.009094 0.603285 1.562823
-0.000521 0.605243 1.567895
0.008145 0.609920 1.580011
0.016921 0.613776 1.590001
0.025917 0.620274 1.606832
-0.087630 0.621488 1.587415
-0.078209 0.615888 1.573110
-0.069313 0.613554 1.567148
-0.060785 0.614268 1.568972
-0.052048 0.612770 1.565146
-0.043512 0.613496 1.567000
-0.034821 0.611875 1.562861
-0.026242 0.611788 1.562638
-0.017646 0.611055 1.560767
-0.009067 0.610061 1.558226
-0.000519 0.612605 1.564725
0.008124 0.616959 1.575847
0.016862 0.620327 1.584448
0.025836 0.627124 1.601810
0.035436 0.641801 1.639297
-0.088010 0.632927 1.594286
-0.078481 0.626695 1.578590
-0.069431 0.623214 1.569821
-0.060680 0.621805 1.566271
-0.052044 0.621301 1.565002
-0.043397 0.620460 1.562884
-0.034741 0.619029 1.559280
-0.026188 0.619083 1.559416
-0.017609 0.618315 1.557480
-0.009050 0.617409 1.555198
-0.000518 0.619926 1.561538
0.008114 0.624896 1.574058
0.016832 0.627889 1.581597
0.025680 0.632060 1.592103
0.035291 0.648135 1.632594
-0.078701 0.637138 1.583016
-0.069414 0.631667 1.569423
-0.060625 0.629822 1.564836
-0.052005 0.629421 1.563842
-0.043370 0.628631 1.561878
-0.034777 0.628228 1.560877
-0.026193 0.627774 1.559748
-0.017615 0.627062 1.557979
-0.009057 0.626442 1.556440
-0.000517 0.627248 1.558442
0.008089 0.631540 1.569106
0.016761 0.633910 1.574995
0.025515 0.636678 1.581871
0.034818 0.648293 1.610729
-0.079338 0.651049 1.595822
-0.069544 0.641478 1.572363
-0.060629 0.638450 1.564940
-0.051997 0.637900 1.563592
-0.043352 0.636937 1.561230
-0.034777 0.636796 1.560884
-0.026199 0.636469 1.560083
-0.017606 0.635290 1.557194
-0.009049 0.634399 1.555009
-0.000517 0.634850 1.556116
0.008064 0.638204 1.564337
0.016707 0.640477 1.569907
0.025453 0.643806 1.578068
0.034397 0.649179 1.591238
-0.079849 0.664059 1.606109
-0.069586 0.650499 1.573313
-0.060569 0.646399 1.563396
-0.051943 0.645812 1.561976
-0.043319 0.645018 1.560057
-0.034708 0.644078 1.557782
-0.026168 0.644263 1.558231
-0.017597 0.643501 1.556387
-0.009056 0.643477 1.556329
-0.000517 0.643505 1.556396
0.008049 0.645526 1.561285
0.016681 0.648066 1.567429
