ply
format ascii 1.0
element vertex 1307
property float x
property float y
property float z
property uchar red
property uchar green
property uchar blue
end_header
-0.232675 0.400919 1.511157 113 68 64
-0.224481 0.401095 1.511819 103 55 53
-0.216001 0.400753 1.510531 103 54 52
-0.208393 0.402065 1.515477 101 54 50
-0.200839 0.403597 1.521249 96 49 45
-0.192720 0.404075 1.523052 88 45 42
-0.185148 0.405795 1.529535 89 52 48
-0.177275 0.406990 1.534037 82 47 43
-0.169272 0.407987 1.537795 80 45 42
-0.161375 0.409361 1.542975 68 37 34
-0.153573 0.411138 1.549674 67 36 35
-0.145669 0.412837 1.556075 59 31 30
-0.137539 0.414068 1.560717 55 33 35
-0.129633 0.416180 1.568677 35 20 24
-0.121983 0.419472 1.581086 27 20 23
-0.114061 0.422260 1.591596 24 18 19
-0.106067 0.425226 1.602773 42 31 27
-0.097329 0.425470 1.603694 32 23 19
-0.087765 0.421800 1.589862 30 20 26
-0.078360 0.418164 1.576157 40 27 35
-0.069367 0.416098 1.568369 44 27 36
-0.060442 0.413909 1.560117 57 34 38
-0.051697 0.412436 1.554567 74 46 46
-0.042964 0.410504 1.547283 77 45 46
-0.034351 0.409044 1.541779 82 48 48
-0.025794 0.407497 1.535949 79 44 41
-0.017311 0.406213 1.531109 87 49 47
-0.008880 0.404880 1.526085 95 54 51
-0.000505 0.403483 1.520820 97 54 51
0.007828 0.402887 1.518574 108 63 60
0.016149 0.402579 1.517411 101 57 50
0.024439 0.401985 1.515172 105 63 58
0.032814 0.402743 1.518032 106 62 61
0.041229 0.403572 1.521154 95 49 48
0.049803 0.405420 1.528121 99 58 56
0.058521 0.407743 1.536876 95 63 64
0.067838 0.413126 1.557167 82 60 65
0.079079 0.427714 1.612153 68 63 65
-0.287406 0.416427 1.537802 104 86 93
-0.276763 0.413135 1.525648 106 79 89
-0.267518 0.411792 1.520686 93 59 65
-0.257583 0.409264 1.511352 104 66 66
-0.249005 0.408795 1.509619 104 64 65
-0.240793 0.408917 1.510071 95 51 52
-0.232687 0.409234 1.511241 103 57 56
-0.224570 0.409553 1.512418 101 54 56
-0.216434 0.409861 1.513556 83 40 37
-0.208753 0.411090 1.518094 90 46 45
-0.200799 0.411861 1.520942 94 50 49
-0.192787 0.412574 1.523576 88 46 47
-0.185274 0.414471 1.530581 82 47 44
-0.177232 0.415305 1.533660 83 47 47
-0.169175 0.416186 1.536915 76 41 38
-0.161376 0.417829 1.542980 71 41 40
-0.153615 0.419756 1.550098 67 37 36
-0.145740 0.421582 1.556839 65 41 41
-0.137757 0.423299 1.563182 50 29 31
-0.129725 0.425088 1.569789 38 25 27
-0.122230 0.429015 1.584290 33 26 29
-0.114357 0.432112 1.595728 25 20 19
-0.106632 0.436330 1.611303 36 27 18
-0.097161 0.433523 1.600937 33 24 15
-0.087882 0.431098 1.591983 33 25 25
-0.078595 0.428093 1.580884 42 31 34
-0.069492 0.425465 1.571180 44 28 35
-0.060512 0.422959 1.561925 57 37 42
-0.051811 0.421895 1.557997 64 40 40
-0.043023 0.419563 1.549385 71 46 44
-0.034393 0.418013 1.543662 80 52 51
-0.025811 0.416209 1.537000 81 49 50
-0.017298 0.414303 1.529959 85 46 48
-0.008873 0.412920 1.524851 101 57 58
-0.000505 0.411978 1.521376 96 54 55
0.007820 0.410769 1.516908 100 56 57
0.016125 0.410309 1.515209 99 57 52
0.024434 0.410212 1.514853 99 55 54
0.032793 0.410800 1.517026 97 47 57
0.041206 0.411688 1.520304 92 45 47
0.049701 0.412965 1.525017 95 51 50
0.058388 0.415231 1.533388 90 50 55
0.067612 0.420267 1.551984 87 57 68
0.078777 0.434892 1.605991 60 49 57
-0.287032 0.424312 1.535803 102 85 89
-0.276299 0.420800 1.523092 100 72 78
-0.266962 0.419262 1.517524 99 65 72
-0.257862 0.418009 1.512987 99 62 66
-0.249051 0.417155 1.509898 102 60 61
-0.240465 0.416634 1.508011 95 51 52
-0.232588 0.417348 1.510594 100 55 52
-0.224423 0.417578 1.511428 100 54 46
-0.216428 0.418155 1.513518 92 50 45
-0.208728 0.419370 1.517915 90 48 43
-0.200575 0.419739 1.519248 87 44 41
-0.192552 0.420422 1.521722 88 49 47
-0.185015 0.422278 1.528442 77 40 42
-0.177233 0.423723 1.533669 82 45 49
-0.169380 0.425135 1.538782 84 46 46
-0.161330 0.426174 1.542540 78 42 42
-0.153287 0.427347 1.546789 74 43 40
-0.145536 0.429522 1.554661 65 36 39
-0.137888 0.432289 1.564673 54 32 37
-0.130007 0.434645 1.573203 42 28 32
-0.122380 0.438245 1.586233 32 24 25
-0.114954 0.443171 1.604062 31 26 25
-0.087836 0.439603 1.591148 38 30 30
-0.078563 0.436591 1.580245 39 28 31
-0.069586 0.434674 1.573307 50 32 39
-0.060681 0.432739 1.566303 57 34 42
-0.051788 0.430254 1.557307 67 42 46
-0.042997 0.427808 1.548457 74 46 46
-0.034352 0.425971 1.541805 80 51 47
-0.025827 0.424903 1.537942 80 46 47
-0.017335 0.423590 1.533189 88 51 55
-0.008880 0.421607 1.526010 90 51 53
-0.000505 0.419965 1.520068 95 55 56
0.007807 0.418422 1.514483 100 60 61
0.016105 0.418098 1.513309 98 58 59
0.024407 0.418068 1.513203 93 55 50
0.032740 0.418449 1.514580 93 49 48
0.041215 0.420122 1.520636 96 52 51
0.049703 0.421345 1.525062 100 56 62
0.058299 0.423001 1.531058 89 53 59
0.067548 0.428379 1.550523 82 52 63
0.078291 0.440964 1.596075 64 47 56
-0.286557 0.432023 1.533260 105 88 92
-0.276279 0.429126 1.522979 103 78 76
-0.266666 0.427115 1.515841 101 73 73
-0.257797 0.426204 1.512608 100 67 64
-0.248998 0.425350 1.509577 96 55 53
-0.240199 0.424440 1.506347 91 47 46
-0.232023 0.424604 1.506929 93 49 50
-0.224220 0.425486 1.510061 96 50 49
-0.216420 0.426443 1.513456 93 50 47
-0.208275 0.426770 1.514618 94 50 51
-0.200581 0.428088 1.519293 86 47 45
-0.192705 0.429113 1.522934 86 48 48
-0.185101 0.430864 1.529147 76 40 40
-0.177317 0.432345 1.534402 76 39 41
-0.169459 0.433780 1.539496 75 39 39
-0.161613 0.435401 1.545250 71 36 32
-0.153621 0.436786 1.550166 77 44 35
-0.145557 0.438116 1.554885 67 35 36
-0.137904 0.440925 1.564852 53 32 35
-0.130087 0.443549 1.574166 39 25 26
-0.122509 0.447420 1.587906 33 23 23
-0.115261 0.453180 1.608348 29 23 18
-0.088290 0.450647 1.599358 34 26 26
-0.078765 0.446403 1.584296 42 28 34
-0.069696 0.444011 1.575806 52 32 37
-0.060755 0.441867 1.568197 57 36 44
-0.051892 0.439685 1.560453 62 39 47
-0.043091 0.437261 1.551849 62 39 43
-0.034393 0.434949 1.543646 75 47 46
-0.025840 0.433564 1.538729 76 45 46
-0.017332 0.431935 1.532949 80 47 51
-0.008886 0.430259 1.526999 86 52 53
-0.000504 0.428182 1.519629 89 54 51
0.007819 0.427356 1.516699 92 52 53
0.016101 0.426295 1.512930 92 53 51
0.024387 0.426017 1.511945 98 57 54
0.032723 0.426539 1.513796 95 52 49
0.041231 0.428631 1.521222 95 50 53
0.049668 0.429409 1.523983 90 49 54
0.058337 0.431678 1.532037 90 56 66
0.067492 0.436520 1.549222 67 43 51
0.077691 0.446278 1.583850 56 47 50
-0.285605 0.438973 1.528168 106 89 93
-0.276349 0.437594 1.523366 97 73 73
-0.266229 0.434719 1.513359 92 62 61
-0.257320 0.433700 1.509809 91 56 53
-0.248810 0.433307 1.508441 88 48 49
-0.240367 0.433007 1.507399 91 48 51
-0.232266 0.433325 1.508505 95 50 53
-0.224314 0.433954 1.510693 92 47 50
-0.216193 0.434292 1.511871 90 47 50
-0.208051 0.434613 1.512989 92 50 51
-0.200615 0.436498 1.519550 85 47 42
-0.193133 0.438440 1.526311 85 50 47
-0.185433 0.440044 1.531894 77 44 41
-0.177520 0.441268 1.536155 77 46 45
-0.169668 0.442772 1.541392 67 36 37
-0.161762 0.444288 1.546670 67 36 39
-0.153957 0.446266 1.553554 68 34 34
-0.145831 0.447487 1.557807 67 38 34
-0.137843 0.449315 1.564168 58 34 34
-0.130302 0.452935 1.576770 47 29 28
-0.122819 0.457286 1.591918 32 23 19
-0.114986 0.460900 1.604500 32 26 15
-0.078862 0.455657 1.586248 44 29 33
-0.069750 0.453007 1.577022 48 29 32
-0.060795 0.450773 1.569245 56 37 40
-0.051901 0.448319 1.560701 57 38 41
-0.043119 0.446061 1.552843 68 45 49
-0.034460 0.444279 1.546637 74 47 51
-0.025847 0.442126 1.539144 75 45 50
-0.017336 0.440461 1.533346 84 52 57
-0.008886 0.438666 1.527097 79 45 46
-0.000505 0.436871 1.520849 88 52 52
0.007813 0.435331 1.515488 89 51 49
0.016093 0.434378 1.512171 90 49 47
0.024403 0.434596 1.512928 95 51 52
0.032747 0.435162 1.514899 90 48 55
0.041188 0.436524 1.519640 87 47 59
0.049696 0.438025 1.524865 91 54 56
0.058339 0.440103 1.532099 82 51 48
0.067359 0.444146 1.546174 77 50 54
0.077882 0.456084 1.587735 56 45 48
-0.285347 0.446954 1.526787 100 84 85
-0.275303 0.444265 1.517600 93 68 64
-0.265810 0.442326 1.510978 91 65 58
-0.257588 0.442444 1.511378 92 58 58
-0.249167 0.442217 1.510606 86 49 51
-0.240464 0.441456 1.508006 90 50 55
-0.232298 0.441663 1.508711 88 46 47
-0.224177 0.441973 1.509770 94 52 53
-0.215931 0.442052 1.510040 90 50 52
-0.208024 0.442859 1.512797 89 49 50
-0.200504 0.444590 1.518711 89 54 34
-0.192915 0.446312 1.524593 81 44 40
-0.185469 0.448537 1.532192 75 42 39
-0.177587 0.449866 1.536733 69 38 37
-0.169985 0.452075 1.544279 70 42 41
-0.161859 0.453047 1.547598 62 35 38
-0.153973 0.454838 1.553717 66 36 41
-0.145932 0.456350 1.558884 59 33 33
-0.138126 0.458835 1.567371 56 35 34
-0.130563 0.462512 1.579932 45 30 28
-0.122868 0.466207 1.592554 33 30 22
-0.078977 0.465039 1.588563 47 33 35
-0.069787 0.461904 1.577855 54 36 37
-0.060757 0.459097 1.568265 57 36 39
-0.051961 0.457414 1.562518 61 40 43
-0.043137 0.454776 1.553505 67 43 51
-0.034462 0.452794 1.546736 66 37 46
-0.025857 0.450735 1.539703 73 44 47
-0.017325 0.448573 1.532318 80 50 49
-0.008872 0.446320 1.524619 83 50 47
-0.000505 0.444963 1.519986 86 51 48
0.007813 0.443649 1.515495 89 51 49
0.016094 0.442702 1.512260 83 45 45
0.024417 0.443168 1.513853 98 59 61
0.032790 0.444058 1.516893 76 41 51
0.041187 0.444852 1.519607 77 42 46
0.049701 0.446430 1.524996 87 52 49
0.058336 0.448489 1.532029 82 53 49
0.067233 0.451783 1.543283 78 50 56
0.077966 0.465301 1.589458 62 48 54
-0.285617 0.455762 1.528229 89 71 72
-0.275625 0.453122 1.519376 83 61 56
-0.266191 0.451263 1.513142 95 69 63
-0.257376 0.450366 1.510136 90 56 57
-0.248827 0.449891 1.508541 84 44 46
-0.240158 0.449158 1.506085 82 42 43
-0.231981 0.449327 1.506653 94 53 51
-0.223892 0.449686 1.507854 89 47 42
-0.215922 0.450320 1.509980 91 45 51
-0.207931 0.450957 1.512118 90 46 45
-0.200121 0.452058 1.515810 90 49 47
-0.192555 0.453828 1.521744 78 39 37
-0.185050 0.455910 1.528724 85 46 48
-0.177424 0.457878 1.535326 66 32 32
-0.169843 0.460164 1.542991 67 36 35
-0.161943 0.461779 1.548403 64 33 32
-0.154049 0.463592 1.554482 68 40 40
-0.146344 0.466219 1.563294 63 39 41
-0.138418 0.468423 1.570683 53 32 35
-0.130937 0.472530 1.584454 39 28 31
-0.123133 0.475968 1.595983 31 28 24
-0.079135 0.474703 1.591741 44 30 34
-0.069946 0.471637 1.581459 51 28 42
-0.060966 0.469312 1.573663 53 29 39
-0.052008 0.466411 1.563937 57 36 38
-0.043229 0.464291 1.556827 60 39 42
-0.034481 0.461543 1.547614 72 47 51
-0.025861 0.459259 1.539956 73 46 49
-0.017326 0.457027 1.532472 78 50 50
-0.008868 0.454490 1.523964 79 48 47
-0.000505 0.453354 1.520154 88 52 52
0.007817 0.452195 1.516267 91 51 53
0.016110 0.451457 1.513792 84 46 46
0.024396 0.451077 1.512520 79 43 43
0.032730 0.451556 1.514127 86 53 57
0.041109 0.452336 1.516740 72 40 41
0.049641 0.454256 1.523179 77 46 47
0.058306 0.456655 1.531222 76 46 51
0.067399 0.461385 1.547084 80 54 60
0.077670 0.472221 1.583417 60 46 48
-0.295970 0.467255 1.538460 79 72 77
-0.285401 0.463798 1.527076 90 66 76
-0.275304 0.460921 1.517606 91 61 66
-0.266183 0.459551 1.513094 88 57 60
-0.257353 0.458612 1.510003 89 52 54
-0.248458 0.457489 1.506304 87 47 48
-0.239835 0.456808 1.504064 91 51 52
-0.231840 0.457317 1.505738 94 53 51
-0.223778 0.457726 1.507085 91 48 45
-0.215573 0.457863 1.507537 93 48 44
-0.207692 0.458727 1.510382 94 51 42
-0.200394 0.461003 1.517876 87 49 44
-0.193055 0.463379 1.525699 80 44 44
-0.185194 0.464659 1.529913 71 39 40
-0.177625 0.466830 1.537060 71 40 37
-0.169789 0.468479 1.542491 68 39 32
-0.162012 0.470475 1.549061 65 36 32
-0.154297 0.472882 1.556988 60 32 32
-0.146251 0.474495 1.562297 60 34 34
-0.138571 0.477569 1.572418 50 31 34
-0.131409 0.482960 1.590170 36 24 30
-0.079354 0.484778 1.596156 38 27 30
-0.070007 0.480733 1.582836 50 31 40
-0.061004 0.478241 1.574632 50 29 38
-0.052029 0.475180 1.564554 53 36 40
-0.043264 0.473209 1.558065 58 37 40
-0.034493 0.470194 1.548137 66 37 40
-0.025883 0.468116 1.541295 77 44 48
-0.017343 0.465879 1.533931 81 50 53
-0.008884 0.463667 1.526648 79 46 50
-0.000505 0.461559 1.519705 90 50 51
0.007825 0.460988 1.517827 88 48 50
0.016133 0.460427 1.515980 82 43 45
0.024413 0.459691 1.513555 86 48 48
0.032728 0.459842 1.514051 84 52 53
0.041129 0.460884 1.517484 72 42 41
0.049675 0.462923 1.524197 71 40 43
0.058311 0.465101 1.531369 76 47 56
0.067228 0.468687 1.543174 65 41 49
0.077353 0.478948 1.576960 59 46 44
-0.296238 0.476126 1.539849 86 77 80
-0.285288 0.471990 1.526471 95 72 80
-0.275426 0.469456 1.518277 84 59 63
-0.266033 0.467590 1.512244 88 60 60
-0.257233 0.466680 1.509298 91 60 59
-0.248045 0.464979 1.503799 89 51 49
-0.239684 0.464767 1.503113 90 48 49
-0.231572 0.465041 1.503999 101 58 55
-0.223689 0.465809 1.506483 97 53 52
-0.215551 0.466087 1.507383 93 49 50
-0.207676 0.466978 1.510262 90 47 44
-0.200318 0.469155 1.517304 85 47 45
-0.193073 0.471795 1.525842 84 50 50
-0.185401 0.473584 1.531628 73 42 41
-0.177680 0.475413 1.537542 72 43 39
-0.170193 0.478079 1.546166 71 42 37
-0.162204 0.479544 1.550902 63 37 31
-0.154326 0.481514 1.557274 58 28 27
-0.146395 0.483541 1.563831 59 34 38
-0.138749 0.486822 1.574442 45 29 36
-0.131630 0.492510 1.592835 32 18 22
-0.070175 0.490594 1.586641 43 29 31
-0.061005 0.486889 1.574658 50 29 37
-0.052140 0.484798 1.567897 53 34 43
-0.043261 0.481727 1.557963 55 34 43
-0.034501 0.478792 1.548470 64 34 47
-0.025852 0.475989 1.539407 77 46 49
-0.017339 0.474178 1.533548 80 49 52
-0.008875 0.471561 1.525087 77 43 44
-0.000503 0.468812 1.516194 92 54 54
0.007808 0.468333 1.514644 87 48 46
0.016106 0.467953 1.513417 89 50 48
0.024400 0.467750 1.512760 81 41 43
0.032749 0.468445 1.515007 83 47 47
0.041191 0.469911 1.519748 72 38 38
0.049650 0.471048 1.523426 76 45 42
0.058383 0.474089 1.533260 72 42 47
0.067374 0.478190 1.546524 68 41 51
0.077714 0.489873 1.584309 63 48 52
-0.296511 0.485022 1.541269 79 71 78
-0.285360 0.480487 1.526857 82 61 70
-0.275955 0.478705 1.521193 86 61 65
-0.266155 0.476105 1.512933 85 60 56
-0.256726 0.474025 1.506323 86 55 52
-0.248334 0.473782 1.505551 93 51 52
-0.239891 0.473425 1.504415 93 48 51
-0.231472 0.473088 1.503344 94 52 45
-0.223567 0.473818 1.505666 100 58 51
-0.215641 0.474558 1.508015 96 54 49
-0.207617 0.475129 1.509832 85 42 39
-0.200374 0.477613 1.517725 87 46 44
-0.192819 0.479534 1.523829 81 45 35
-0.185329 0.481799 1.531028 80 42 42
-0.177972 0.484644 1.540068 76 45 42
-0.170163 0.486477 1.545893 72 42 41
-0.162479 0.488881 1.553531 57 27 26
-0.154528 0.490700 1.559311 69 39 38
-0.146598 0.492805 1.566000 50 29 31
-0.139431 0.497898 1.582183 35 21 25
-0.132180 0.503344 1.599491 29 18 20
-0.070314 0.500290 1.589786 36 28 29
-0.061257 0.497580 1.581174 44 30 34
-0.052205 0.494020 1.569861 47 31 38
-0.043304 0.490763 1.559512 60 39 48
-0.034589 0.488536 1.552434 63 36 45
-0.025892 0.485182 1.541777 72 42 47
-0.017329 0.482328 1.532706 75 45 44
-0.008868 0.479555 1.523897 84 53 52
-0.000503 0.477270 1.516634 85 46 48
0.007811 0.476842 1.515275 82 44 42
0.016098 0.476020 1.512661 83 49 43
0.024415 0.476337 1.513669 75 43 38
0.032764 0.476975 1.515698 74 37 41
0.041187 0.478207 1.519613 70 36 37
0.049653 0.479440 1.523531 78 49 45
0.058386 0.482527 1.533340 69 44 42
0.067482 0.487454 1.548995 69 42 46
0.077601 0.497846 1.582018 58 41 45
-0.296790 0.493945 1.542723 74 67 72
-0.285603 0.489281 1.528156 82 63 72
-0.275836 0.486842 1.520540 82 60 65
-0.266295 0.484662 1.513731 83 58 54
-0.257088 0.482969 1.508443 83 54 47
-0.248336 0.482047 1.505563 94 52 53
-0.239714 0.481323 1.503301 98 54 55
-0.231377 0.481140 1.502731 97 50 52
-0.223116 0.481107 1.502628 95 51 50
-0.215127 0.481680 1.504416 93 49 48
-0.207560 0.483283 1.509421 89 48 46
-0.200371 0.485932 1.517698 85 43 44
-0.193066 0.488522 1.525787 79 39 41
-0.185451 0.490525 1.532042 69 36 33
-0.177641 0.492177 1.537203 67 38 41
-0.170120 0.494836 1.545506 64 35 38
-0.162583 0.497722 1.554521 61 30 31
-0.154697 0.499804 1.561021 59 34 32
-0.147009 0.502803 1.570390 52 34 33
-0.139805 0.507939 1.586432 29 21 21
-0.070623 0.511245 1.596755 33 27 28
-0.061193 0.505723 1.579510 42 33 36
-0.052165 0.502245 1.568645 42 31 34
-0.043414 0.500588 1.563472 53 37 44
-0.034626 0.497590 1.554106 64 41 45
-0.025888 0.493581 1.541587 74 43 46
-0.017318 0.490431 1.531749 72 42 41
-0.008863 0.487657 1.523085 81 48 52
-0.000503 0.485143 1.515231 85 48 50
0.007809 0.485010 1.514817 83 46 50
0.016111 0.484693 1.513828 65 31 37
0.024414 0.484637 1.513653 56 24 29
0.032751 0.485101 1.515100 72 40 45
0.041169 0.486337 1.518961 70 38 43
0.049713 0.488393 1.525384 70 42 41
0.058384 0.490923 1.533283 68 42 36
0.067457 0.495767 1.548415 69 44 42
0.077689 0.507098 1.583803 54 37 40
0.090342 0.530359 1.656455 10 8 8
-0.297589 0.503761 1.546872 73 68 70
-0.286119 0.498566 1.530919 79 65 67
-0.275995 0.495471 1.521417 81 59 64
-0.266605 0.493543 1.515496 78 58 57
-0.257469 0.491974 1.510679 76 53 51
-0.248176 0.489994 1.504597 91 54 58
-0.239722 0.489589 1.503355 86 46 48
-0.231457 0.489555 1.503251 93 49 50
-0.222996 0.489088 1.501817 88 44 45
-0.214803 0.489198 1.502153 88 46 47
-0.207304 0.490959 1.507560 87 49 49
-0.200114 0.493627 1.515752 79 44 41
-0.192976 0.496662 1.525074 82 46 46
-0.185435 0.498888 1.531907 69 37 38
-0.177841 0.501176 1.538934 68 39 42
-0.170434 0.504245 1.548357 61 34 38
-0.162967 0.507447 1.558190 57 32 36
-0.154922 0.509109 1.563294 48 26 28
-0.147476 0.513047 1.575385 39 27 27
-0.140464 0.519076 1.593899 32 27 24
-0.061344 0.515662 1.583416 39 28 31
-0.052274 0.511926 1.571942 47 32 36
-0.043467 0.509791 1.565388 51 31 36
-0.034618 0.505991 1.553718 60 37 42
-0.025896 0.502193 1.542056 70 39 46
-0.017294 0.498125 1.529565 82 50 55
-0.008854 0.495510 1.521535 82 49 53
-0.000503 0.493315 1.514796 90 54 54
0.007802 0.492861 1.513402 85 49 49
0.016095 0.492518 1.512348 79 46 50
0.024396 0.492579 1.512536 71 38 45
0.032736 0.493181 1.514385 77 43 50
0.041180 0.494800 1.519356 77 45 50
0.049851 0.498138 1.529605 72 41 42
0.058562 0.500856 1.537952 65 37 36
0.067432 0.504080 1.547852 66 45 43
0.077622 0.515345 1.582440 54 45 42
-0.298946 0.514586 1.553928 0 0 0
-0.285974 0.506709 1.530144 76 65 67
-0.276308 0.504391 1.523142 76 57 60
-0.266271 0.501229 1.513594 68 47 49
-0.257139 0.499623 1.508743 75 49 49
-0.248089 0.498075 1.504068 82 49 53
-0.239714 0.497822 1.503304 84 49 46
-0.231116 0.497071 1.501037 91 55 45
-0.222827 0.496954 1.500684 92 49 60
-0.215016 0.497934 1.503643 84 44 46
-0.207240 0.499077 1.507096 85 48 44
-0.200263 0.502319 1.516886 82 44 42
-0.192749 0.504436 1.523279 77 39 39
-0.185222 0.506711 1.530150 72 38 39
-0.177742 0.509336 1.538076 66 37 40
-0.170512 0.512975 1.549065 54 32 37
-0.163072 0.516330 1.559194 48 27 36
-0.155417 0.519341 1.568287 43 26 30
-0.148342 0.524755 1.584636 28 23 20
-0.061646 0.526926 1.591192 40 31 28
-0.052399 0.521789 1.575681 42 29 27
-0.043474 0.518463 1.565636 49 29 28
-0.034572 0.513836 1.551663 65 41 43
-0.025842 0.509577 1.538804 68 38 43
-0.017257 0.505442 1.526317 75 47 47
-0.008858 0.504096 1.522250 85 53 54
-0.000503 0.501647 1.514855 81 49 50
0.007805 0.501347 1.513950 90 54 54
0.016111 0.501321 1.513872 78 42 42
0.024426 0.501497 1.514402 76 42 43
0.032785 0.502239 1.516645 72 40 45
0.041204 0.503429 1.520237 63 32 35
0.049791 0.505925 1.527774 64 34 33
0.058613 0.509736 1.539284 65 37 36
0.067670 0.514380 1.553307 61 39 41
0.077805 0.525261 1.586164 48 37 39
-0.300201 0.525308 1.560452 0 0 0
-0.286613 0.516255 1.533559 73 59 65
-0.276394 0.512909 1.523618 76 57 60
-0.266305 0.509600 1.513790 67 49 50
-0.256889 0.507407 1.507275 73 49 51
-0.248159 0.506470 1.504490 81 50 53
-0.239406 0.505420 1.501373 83 47 47
-0.230826 0.504672 1.499149 82 42 43
-0.222844 0.505225 1.500793 86 48 48
-0.214919 0.505955 1.502962 89 51 49
-0.206982 0.506713 1.505214 83 45 40
-0.199822 0.509517 1.513542 82 44 42
-0.192654 0.512542 1.522527 79 45 46
-0.185395 0.515588 1.531576 76 44 45
-0.178127 0.518896 1.541405 59 35 35
-0.170487 0.521398 1.548837 55 37 38
-0.162901 0.524335 1.557560 51 34 37
-0.156234 0.530720 1.576527 37 26 29
-0.149529 0.537717 1.597312 29 26 21
-0.062145 0.539994 1.604076 33 27 22
-0.052558 0.532050 1.580477 38 29 26
-0.043424 0.526447 1.563833 48 28 33
-0.034540 0.521873 1.550246 58 35 40
-0.025831 0.517815 1.538191 70 38 43
-0.017263 0.513990 1.526830 71 41 40
-0.008848 0.511851 1.520476 83 45 45
-0.000503 0.509764 1.514277 90 54 54
0.007802 0.509494 1.513475 84 50 50
0.016133 0.510339 1.515985 76 44 45
0.024466 0.510630 1.516850 76 44 45
0.032860 0.511734 1.520129 75 44 47
0.041358 0.513686 1.525928 73 43 42
0.049869 0.515108 1.530152 66 38 37
0.058674 0.518725 1.540896 63 38 36
0.067906 0.524731 1.558736 59 38 41
0.078106 0.536032 1.592305 37 28 31
-0.299677 0.532938 1.557726 68 57 67
-0.286358 0.524203 1.532195 66 53 51
-0.275968 0.520464 1.521266 71 53 52
-0.266224 0.517749 1.513329 71 52 55
-0.256959 0.515819 1.507688 71 48 52
-0.248265 0.514946 1.505136 81 50 51
-0.239217 0.513252 1.500186 79 45 45
-0.230868 0.512991 1.499424 79 40 38
-0.222841 0.513454 1.500775 83 46 42
-0.214809 0.513938 1.502191 79 47 42
-0.207048 0.515136 1.505693 82 47 44
-0.199730 0.517583 1.512845 75 41 41
-0.192572 0.520676 1.521884 73 42 43
-0.185316 0.523768 1.530922 69 38 39
-0.178280 0.527808 1.542732 62 38 38
-0.171353 0.532589 1.556705 46 29 32
-0.163779 0.535755 1.565961 42 27 31
-0.157093 0.542336 1.585196 29 21 21
-0.063554 0.561239 1.640446 0 0 0
-0.052851 0.543738 1.589293 35 27 27
-0.043466 0.535553 1.565368 54 33 41
-0.034485 0.529530 1.547765 54 32 37
-0.025820 0.526024 1.537515 71 41 46
-0.017267 0.522493 1.527196 69 39 38
-0.008849 0.520272 1.520703 88 53 49
-0.000502 0.517778 1.513414 79 45 39
0.007804 0.517908 1.513793 82 48 48
0.016130 0.518534 1.515623 72 41 44
0.024439 0.518374 1.515157 76 43 47
0.032848 0.519889 1.519585 74 43 46
0.041355 0.522016 1.525800 67 42 40
0.049980 0.524672 1.533564 60 39 37
0.058730 0.527682 1.542363 54 33 35
0.068083 0.534669 1.562785 50 33 37
0.078331 0.546337 1.596888 27 21 22
-0.301653 0.545056 1.567996 0 0 0
-0.287098 0.533988 1.536158 70 53 57
-0.276138 0.529138 1.522206 68 49 52
-0.266887 0.527362 1.517096 70 51 54
-0.257107 0.524394 1.508558 76 52 52
-0.248409 0.523507 1.506005 82 52 51
-0.239587 0.522291 1.502509 76 45 44
-0.230966 0.521441 1.500062 85 49 49
-0.222692 0.521341 1.499774 77 42 38
-0.214618 0.521718 1.500860 74 40 41
-0.206971 0.523206 1.505140 78 42 42
-0.199912 0.526364 1.514224 75 39 39
-0.192778 0.529590 1.523505 69 37 38
-0.185648 0.533123 1.533668 62 33 36
-0.178445 0.536768 1.544155 53 32 34
-0.171716 0.542278 1.560006 44 27 30
-0.164422 0.546486 1.572110 36 25 27
-0.159229 0.558529 1.606755 35 33 22
-0.053099 0.555043 1.596726 0 0 0
-0.043508 0.544667 1.566877 50 31 34
-0.034454 0.537548 1.546398 58 34 34
-0.025785 0.533741 1.535445 66 39 42
-0.017241 0.530092 1.524950 75 48 51
-0.008838 0.527939 1.518754 73 41 46
-0.000502 0.526029 1.513261 79 48 49
0.007794 0.525539 1.511853 78 45 49
0.016097 0.525785 1.512558 73 40 44
0.024457 0.527077 1.516276 75 44 43
0.032898 0.529029 1.521890 70 39 40
0.041416 0.531180 1.528080 58 37 39
0.050024 0.533559 1.534922 62 44 43
0.058892 0.537622 1.546611 52 36 37
0.068154 0.543814 1.564425 47 33 34
0.078856 0.558824 1.607605 26 21 18
-0.287413 0.543012 1.537843 68 54 60
-0.276434 0.538067 1.523837 68 51 55
-0.266721 0.535354 1.516154 69 48 50
-0.257384 0.533245 1.510180 75 45 44
-0.248738 0.532475 1.508001 77 43 43
-0.239650 0.530674 1.502899 77 43 43
-0.230863 0.529435 1.499391 78 44 45
-0.222435 0.528958 1.498041 74 43 42
-0.214803 0.530409 1.502148 73 39 39
-0.206772 0.530953 1.503690 78 41 43
-0.199601 0.533841 1.511869 74 38 38
-0.192552 0.537319 1.521719 72 38 38
-0.185530 0.541195 1.532696 59 35 35
-0.178726 0.546100 1.546588 47 30 34
-0.172374 0.552947 1.565978 40 30 30
-0.165695 0.559408 1.584277 31 26 23
-0.053433 0.567351 1.606772 0 0 0
-0.043525 0.553476 1.567475 48 32 33
-0.034477 0.546389 1.547405 62 38 38
-0.025764 0.541724 1.534194 65 33 34
-0.017246 0.538612 1.525382 64 33 34
-0.008833 0.535956 1.517858 72 41 44
-0.000503 0.534874 1.514796 75 44 47
0.007799 0.534182 1.512834 76 43 47
0.016101 0.534233 1.512979 77 46 47
0.024470 0.535683 1.517085 74 44 43
0.032901 0.537426 1.522023 58 37 35
0.041445 0.539934 1.529126 54 36 37
0.050113 0.542939 1.537636 57 38 41
0.058980 0.546933 1.548946 49 26 34
0.068455 0.554836 1.571328 45 33 33
0.079465 0.572026 1.620011 23 20 15
-0.287574 0.551759 1.538703 64 53 61
-0.276913 0.547374 1.526474 64 52 58
-0.266757 0.543746 1.516356 68 47 55
-0.257148 0.541035 1.508798 71 44 47
-0.248390 0.539993 1.505891 79 49 48
-0.239677 0.538981 1.503070 74 43 42
-0.231077 0.538160 1.500779 75 45 44
-0.222644 0.537682 1.499445 73 42 45
-0.214849 0.538768 1.502476 64 33 34
-0.206845 0.539394 1.504222 71 40 39
-0.199414 0.541628 1.510451 64 34 33
-0.192202 0.544678 1.518955 64 39 37
-0.185502 0.549520 1.532460 56 35 33
-0.179080 0.555687 1.549656 47 29 28
-0.172152 0.560819 1.563967 35 25 25
-0.167545 0.574446 1.601971 37 34 29
-0.043566 0.562602 1.568940 43 34 31
-0.034457 0.554566 1.546530 49 32 35
-0.025807 0.551051 1.536730 59 38 41
-0.017254 0.547238 1.526095 61 40 39
-0.008827 0.543948 1.516919 65 37 36
-0.000503 0.543750 1.516368 66 37 40
0.007801 0.542656 1.513316 67 38 41
0.016102 0.542543 1.513002 68 40 39
0.024482 0.544274 1.517830 67 44 42
0.032949 0.546582 1.524264 60 41 38
0.041552 0.549748 1.533094 50 30 29
0.050213 0.552476 1.540702 49 29 28
0.059024 0.555838 1.550079 44 25 28
0.068485 0.563709 1.572028 37 29 29
0.079733 0.582878 1.625486 19 20 16
-0.288648 0.562295 1.544451 57 47 53
-0.277568 0.557066 1.530088 59 48 51
-0.267891 0.554413 1.522802 62 44 51
-0.257444 0.549947 1.510536 65 44 46
-0.248338 0.548142 1.505579 74 48 48
-0.239347 0.546476 1.501001 77 47 46
-0.230544 0.545136 1.497322 73 43 42
-0.222494 0.545542 1.498437 67 38 41
-0.214544 0.546236 1.500341 68 37 40
-0.207196 0.548577 1.506773 71 39 40
-0.199433 0.549968 1.510593 64 36 35
-0.192417 0.553632 1.520658 57 38 35
-0.186157 0.559899 1.537870 50 32 33
-0.179498 0.565505 1.553268 48 32 33
-0.172940 0.572004 1.571120 30 25 24
-0.170976 0.595177 1.634769 55 62 47
-0.043768 0.573869 1.576241 39 33 28
-0.034535 0.564317 1.550004 41 29 29
-0.025829 0.559974 1.538076 48 32 33
-0.017274 0.556258 1.527869 55 37 38
-0.008856 0.554100 1.521942 57 34 38
-0.000504 0.553029 1.519001 70 41 50
0.007805 0.551237 1.514079 63 36 40
0.016124 0.551598 1.515069 58 34 34
0.024482 0.552610 1.517848 58 36 38
0.032933 0.554668 1.523504 49 26 30
0.041582 0.558560 1.534192 50 32 33
0.050324 0.562180 1.544136 42 27 25
0.059224 0.566257 1.555334 42 28 32
0.068934 0.576084 1.582327 26 20 21
-0.290808 0.575040 1.556007 51 45 46
-0.278636 0.567636 1.535973 53 42 45
-0.267930 0.562851 1.523024 66 49 53
-0.257516 0.558391 1.510956 65 47 48
-0.248731 0.557284 1.507962 70 46 46
-0.239577 0.555246 1.502445 68 43 41
-0.230935 0.554289 1.499856 69 39 38
-0.222857 0.554668 1.500883 69 38 41
-0.214770 0.555052 1.501921 71 39 44
-0.207279 0.557069 1.507378 65 35 40
-0.199655 0.558879 1.512278 56 30 36
-0.192793 0.563072 1.523624 51 33 32
-0.186200 0.568468 1.538224 46 31 29
-0.179358 0.573581 1.552059 41 29 29
-0.174413 0.585571 1.584504 27 24 20
-0.043897 0.584233 1.580882 35 28 31
-0.034568 0.573375 1.551502 47 33 35
-0.025823 0.568272 1.537693 52 33 36
-0.017286 0.565011 1.528870 49 33 34
-0.008863 0.562876 1.523093 56 36 41
-0.000504 0.560824 1.517540 61 38 43
0.007816 0.560286 1.516084 58 34 36
0.016164 0.561321 1.518885 59 36 34
0.024511 0.561594 1.519624 53 34 31
0.032989 0.563996 1.526123 49 30 33
0.041713 0.568760 1.539014 43 28 32
0.050515 0.572815 1.549987 32 23 26
0.059723 0.579635 1.568442 31 26 27
0.070089 0.594562 1.608833 16 17 15
-0.294446 0.590878 1.575472 0 0 0
-0.279289 0.577416 1.539576 45 38 41
-0.267770 0.570867 1.522114 60 42 49
-0.257431 0.566494 1.510456 68 45 49
-0.248218 0.564392 1.504851 70 44 50
-0.239867 0.564170 1.504260 66 39 42
-0.231511 0.563923 1.503600 70 42 42
-0.223034 0.563351 1.502074 73 42 45
-0.214671 0.563035 1.501232 62 35 38
-0.207427 0.565743 1.508452 57 36 35
-0.199771 0.567506 1.513154 56 35 38
-0.192563 0.570753 1.521811 49 30 33
-0.185972 0.576202 1.536340 47 30 33
-0.180367 0.585372 1.560790 36 22 28
-0.176585 0.601665 1.604234 30 31 21
-0.209644 0.751782 2.004494 60 73 41
-0.044296 0.598290 1.595233 32 27 29
-0.034665 0.583516 1.555841 42 31 33
-0.025852 0.577352 1.539407 48 34 36
-0.017286 0.573397 1.528861 51 34 37
-0.008874 0.571957 1.525022 55 32 40
-0.000505 0.571005 1.522484 64 37 41
0.007816 0.568649 1.516201 58 34 36
0.016134 0.568571 1.515994 58 34 34
0.024545 0.570736 1.521765 51 32 29
0.033050 0.573424 1.528932 45 29 30
0.041830 0.578822 1.543326 33 22 25
0.050752 0.584050 1.557267 27 20 23
0.060255 0.593479 1.582406 26 21 23
0.070418 0.606230 1.616404 14 14 14
-0.280981 0.589412 1.548901 35 28 33
-0.268548 0.580902 1.526539 57 45 51
-0.257735 0.575462 1.512241 63 43 48
-0.248177 0.572555 1.504603 62 39 43
-0.239671 0.571957 1.503031 69 44 48
-0.231333 0.571733 1.502443 66 40 40
-0.223193 0.572001 1.503147 64 38 38
-0.215301 0.572948 1.505637 57 31 31
-0.207593 0.574479 1.509660 55 36 33
-0.200142 0.576880 1.515969 48 30 31
-0.193308 0.581342 1.527694 45 24 33
-0.186606 0.586626 1.541581 43 24 33
-0.180421 0.594113 1.561256 37 26 28
-0.178665 0.617660 1.623133 50 48 37
-0.209051 0.760622 1.998819 52 56 31
-0.198883 0.763695 2.006895 47 58 32
-0.066666 0.762861 2.004704 0 0 0
-0.044848 0.614611 1.615121 0 0 0
-0.034756 0.593613 1.559942 39 30 33
-0.025887 0.586590 1.541485 44 29 33
-0.017299 0.582224 1.530011 48 28 33
-0.008875 0.580349 1.525084 57 34 42
-0.000505 0.578636 1.520583 57 33 35
0.007817 0.576999 1.516281 55 35 24
0.016131 0.576798 1.515753 63 37 43
0.024537 0.578896 1.521266 51 29 31
0.033126 0.583153 1.532453 45 30 28
0.042067 0.590627 1.552094 33 27 28
0.051055 0.596129 1.566554 26 19 22
0.061036 0.609971 1.602927 17 12 14
0.071693 0.626233 1.645662 7 9 9
-0.385269 0.773063 2.002635 38 31 28
-0.365460 0.754844 1.955440 0 0 0
-0.283919 0.604163 1.565096 40 35 32
-0.269673 0.591748 1.532935 59 53 54
-0.257782 0.583865 1.512515 54 42 42
-0.248045 0.580502 1.503803 56 38 39
-0.239495 0.579779 1.501931 59 38 41
-0.231282 0.579849 1.502111 61 36 40
-0.223522 0.581102 1.505358 59 32 36
-0.215778 0.582497 1.508970 55 31 33
-0.208004 0.583918 1.512652 48 30 31
-0.200609 0.586563 1.519505 47 28 31
-0.193859 0.591408 1.532056 46 25 34
-0.187225 0.597059 1.546693 40 23 32
-0.181943 0.607764 1.574425 35 27 28
-0.208504 0.769571 1.993590 46 45 24
-0.197618 0.769779 1.994128 42 45 20
-0.187236 0.772089 2.000114 42 46 21
-0.176002 0.770952 1.997166 44 48 23
-0.165260 0.771963 1.999787 46 47 27
-0.154423 0.772647 2.001558 42 44 25
-0.132774 0.774491 2.006335 47 48 28
-0.066515 0.772111 2.000171 0 0 0
-0.034978 0.606013 1.569890 32 25 30
-0.026008 0.597839 1.548714 40 26 32
-0.017353 0.592479 1.534829 44 29 33
-0.008885 0.589415 1.526893 53 33 38
-0.000505 0.586782 1.520071 55 34 37
0.007843 0.587321 1.521468 57 34 38
0.016160 0.586161 1.518462 58 34 42
0.024547 0.587477 1.521871 46 25 33
0.033165 0.592259 1.534260 36 23 25
0.042096 0.599545 1.553135 33 27 28
0.051218 0.606651 1.571543 33 28 27
0.061540 0.623872 1.616154 19 20 18
-0.408243 0.785971 2.007539 25 26 10
-0.396158 0.783854 2.002131 29 29 15
-0.383911 0.781287 1.995575 25 22 17
-0.365225 0.765082 1.954183 0 0 0
-0.285246 0.615614 1.572410 0 0 0
-0.268408 0.597342 1.525740 45 40 41
-0.257979 0.592619 1.513675 51 40 42
-0.248612 0.590099 1.507239 59 39 44
-0.239894 0.588999 1.504431 54 32 37
-0.231510 0.588673 1.503596 52 28 36
-0.223761 0.589994 1.506972 48 25 30
-0.216225 0.592000 1.512096 54 34 39
-0.208345 0.593187 1.515127 46 29 33
-0.200837 0.595578 1.521234 42 26 33
-0.194215 0.600914 1.534864 40 25 29
-0.187877 0.607655 1.552080 40 29 31
-0.182919 0.619711 1.582876 33 29 28
-0.207340 0.776154 1.982465 25 25 7
-0.196990 0.778240 1.987793 30 31 11
-0.186247 0.778924 1.989540 32 34 12
-0.174889 0.776965 1.984537 32 33 13
-0.164341 0.778585 1.988673 32 32 14
-0.153839 0.780665 1.993985 33 33 15
-0.142900 0.780679 1.994022 36 36 18
-0.132026 0.781075 1.995032 33 33 15
-0.121432 0.783352 2.000849 38 39 19
-0.110539 0.783961 2.002404 34 35 15
-0.099778 0.785745 2.006961 34 34 16
-0.088755 0.785647 2.006712 38 38 20
-0.066477 0.782636 1.999021 0 0 0
-0.035273 0.619815 1.583140 28 23 25
-0.026165 0.610005 1.558083 35 25 31
-0.017341 0.600475 1.533741 40 24 31
-0.008892 0.598240 1.528034 48 27 35
-0.000505 0.595838 1.521899 54 34 39
0.007855 0.596542 1.523696 53 31 36
0.016212 0.596409 1.523357 47 28 31
0.024580 0.596638 1.523942 42 27 31
0.033187 0.601076 1.535278 29 19 25
0.041974 0.606307 1.548639 35 29 30
0.051157 0.614540 1.569668 34 29 28
0.061422 0.631531 1.613066 29 27 26
0.071578 0.643260 1.643024 7 8 6
-0.394540 0.791593 1.993954 22 21 7
-0.382513 0.789354 1.988312 25 23 13
-0.364447 0.774152 1.950020 0 0 0
-0.283684 0.620825 1.563803 49 43 38
-0.268943 0.606923 1.528786 46 41 40
-0.258568 0.602295 1.517126 42 34 35
-0.249112 0.599572 1.510269 42 25 28
-0.240200 0.598015 1.506348 56 38 39
-0.232019 0.598234 1.506899 50 29 32
-0.223887 0.598600 1.507820 50 28 33
-0.216442 0.600899 1.513612 45 24 32
-0.208923 0.603172 1.519336 39 22 25
-0.201844 0.606953 1.528862 38 24 28
-0.194769 0.611074 1.539242 31 21 27
-0.188517 0.618271 1.557369 30 24 25
-0.182293 0.626247 1.577459 31 30 26
-0.206562 0.784078 1.975024 29 29 13
-0.196050 0.785380 1.978302 28 28 12
-0.185457 0.786493 1.981107 28 28 14
-0.174328 0.785328 1.978171 24 24 10
-0.163867 0.787220 1.982937 25 28 13
-0.153204 0.788337 1.985752 21 27 8
-0.142447 0.789110 1.987700 26 28 9
-0.120950 0.791182 1.992916 24 22 11
-0.109859 0.790059 1.990089 25 23 12
-0.099272 0.792717 1.996784 27 25 14
-0.088377 0.793265 1.998164 24 24 12
-0.077460 0.793750 1.999387 28 25 17
-0.066318 0.791714 1.994258 0 0 0
-0.035506 0.632661 1.593618 30 24 25
-0.026337 0.622611 1.568301 29 22 27
-0.017421 0.611714 1.540854 35 21 27
-0.008915 0.608203 1.532009 43 25 32
-0.000508 0.606922 1.528782 43 29 33
0.007860 0.605310 1.524723 42 27 31
0.016239 0.605778 1.525901 34 23 26
0.024668 0.607154 1.529368 24 17 20
0.033219 0.610091 1.536765 24 17 20
0.041910 0.613869 1.546281 38 29 32
0.050973 0.620919 1.564040 33 27 28
0.061714 0.643425 1.620731 21 21 21
0.071018 0.647171 1.630166 8 9 7
-0.380983 0.797062 1.980358 29 24 23
-0.361361 0.778208 1.933512 0 0 0
-0.282851 0.627557 1.559209 42 35 32
-0.268471 0.614231 1.526100 46 35 38
-0.258957 0.611539 1.519413 39 28 31
-0.249456 0.608700 1.512357 44 29 33
-0.240726 0.607610 1.509649 43 28 32
-0.232328 0.607311 1.508907 44 30 32
-0.224628 0.608881 1.512808 44 30 32
-0.216975 0.610706 1.517342 42 25 29
-0.209639 0.613603 1.524539 40 28 28
-0.202791 0.618228 1.536032 35 25 25
-0.195557 0.622028 1.545472 28 21 24
-0.188735 0.627542 1.559174 28 22 23
-0.183428 0.638855 1.587281 33 31 30
-0.206191 0.793489 1.971479 25 24 10
-0.195426 0.793703 1.972013 20 20 8
-0.184653 0.793906 1.972516 20 21 12
-0.174237 0.795768 1.977142 15 18 9
-0.163490 0.796265 1.978376 15 19 8
-0.152937 0.797843 1.982297 19 23 12
-0.120425 0.798631 1.984256 18 15 10
-0.109841 0.800848 1.989764 16 13 8
-0.099085 0.802162 1.993027 14 14 8
-0.088266 0.803220 1.995656 14 16 10
-0.077344 0.803521 1.996404 13 12 8
-0.066099 0.799999 1.987653 0 0 0
-0.035483 0.640978 1.592556 30 24 25
-0.026442 0.633730 1.574548 28 21 24
-0.017580 0.625828 1.554914 27 20 23
-0.008941 0.618414 1.536493 28 23 22
-0.000509 0.616857 1.532624 30 27 23
0.007886 0.615695 1.529739 29 23 24
0.016303 0.616568 1.531907 32 23 26
0.024724 0.616957 1.532873 28 20 20
0.033251 0.619117 1.538240 32 20 20
0.041908 0.622327 1.546216 40 26 27
0.050764 0.626919 1.557626 47 39 40
0.061028 0.645070 1.602722 31 29 28
0.070608 0.652324 1.620746 11 17 12
-0.278752 0.626894 1.536614 45 34 42
-0.268032 0.621588 1.523607 45 30 38
-0.258959 0.619882 1.519425 39 25 27
-0.250218 0.618883 1.516978 38 23 27
-0.241163 0.617011 1.512390 32 16 23
-0.232938 0.617207 1.512868 38 26 32
-0.225128 0.618557 1.516178 34 26 27
-0.217990 0.621928 1.524442 32 23 26
-0.210712 0.625151 1.532341 31 22 25
-0.204120 0.630764 1.546099 28 21 24
-0.196361 0.633099 1.551822 34 23 25
-0.189165 0.637544 1.562720 35 25 25
-0.183749 0.648698 1.590058 39 34 33
-0.212494 0.787571 1.930458 15 13 5
-0.205288 0.800781 1.962838 16 17 8
-0.195229 0.803713 1.970025 14 17 8
-0.184532 0.804201 1.971221 11 13 7
-0.173906 0.805082 1.973380 9 13 7
-0.163652 0.807918 1.980330 5 9 3
-0.153158 0.809886 1.985155 8 9 5
-0.120792 0.811987 1.990305 6 7 5
-0.110198 0.814407 1.996237 6 7 5
-0.099224 0.814240 1.995827 6 9 7
-0.088344 0.814895 1.997432 5 8 6
-0.077645 0.817644 2.004171 10 8 8
-0.065926 0.808781 1.982447 0 0 0
-0.045907 0.674476 1.653244 0 0 0
-0.035487 0.649793 1.592743 36 28 35
-0.026479 0.643273 1.576762 31 23 30
-0.017730 0.639762 1.568156 19 11 18
-0.009056 0.634913 1.556270 25 20 21
-0.000512 0.629227 1.542333 18 16 16
0.007917 0.626550 1.535771 23 17 18
0.016339 0.626346 1.535271 25 17 18
0.024736 0.625659 1.533588 38 26 26
0.033194 0.626470 1.535575 48 30 31
0.041841 0.629796 1.543726 43 26 29
0.050636 0.633865 1.553700 43 32 35
0.060361 0.646720 1.585211 33 28 30
0.071816 0.672535 1.648487 4 7 5
0.079654 0.662488 1.623860 3 5 5
-0.294422 0.651339 1.575345 0 0 0
-0.278211 0.634092 1.533629 47 32 40
-0.267464 0.628613 1.520379 52 35 39
-0.258799 0.627830 1.518486 51 36 33
-0.250157 0.627054 1.516608 37 24 22
-0.241777 0.626901 1.516238 32 21 23
-0.233888 0.628060 1.519041 29 25 24
-0.225830 0.628831 1.520906 28 26 25
-0.219032 0.633305 1.531727 24 22 22
-0.212015 0.637476 1.541815 23 17 18
-0.204309 0.639838 1.547526 34 23 25
-0.196193 0.641066 1.550497 39 25 27
-0.188679 0.644458 1.558703 37 27 27
-0.183927 0.658059 1.591597 35 32 27
-0.213966 0.803693 1.943832 9 9 3
-0.205311 0.811646 1.963066 7 8 6
-0.195217 0.814469 1.969894 6 7 5
-0.184288 0.813940 1.968614 9 10 8
-0.174293 0.817727 1.977773 6 9 7
-0.164021 0.820629 1.984793 5 6 4
-0.152951 0.819668 1.982469 7 5 5
-0.120965 0.824087 1.993156 4 7 5
-0.110115 0.824737 1.994730 5 8 6
-0.099576 0.828116 2.002901 3 6 4
-0.045129 0.671976 1.625257 0 0 0
-0.035408 0.657069 1.589203 41 29 35
-0.026471 0.651716 1.576257 38 27 29
-0.017727 0.648245 1.567862 31 21 27
-0.009123 0.648175 1.567692 21 13 20
-0.000518 0.644834 1.559611 19 12 17
0.007954 0.637916 1.542880 21 14 17
0.016336 0.634675 1.535040 34 25 28
0.024730 0.633934 1.533249 40 26 28
0.033134 0.633753 1.532810 48 30 29
0.041809 0.637789 1.542572 51 33 34
0.050666 0.642769 1.554617 43 29 35
0.060880 0.661051 1.598834 29 26 28
0.072622 0.689231 1.666992 11 16 15
-0.292669 0.656054 1.565966 0 0 0
-0.277692 0.641308 1.530769 45 28 37
-0.267110 0.636111 1.518362 48 31 35
-0.258808 0.636185 1.518539 44 26 27
-0.250419 0.636040 1.518193 42 26 27
-0.242414 0.636896 1.520237 25 17 17
-0.235267 0.640147 1.527996 23 18 19
-0.227636 0.642270 1.533065 21 16 18
-0.220235 0.645233 1.540137 20 15 17
-0.212136 0.646307 1.542700 31 20 23
-0.203734 0.646504 1.543171 38 24 28
-0.195980 0.648870 1.548817 48 31 35
-0.188906 0.653798 1.560581 37 29 29
-0.183687 0.665923 1.589522 29 28 24
-0.204554 0.819385 1.955828 5 8 6
-0.194490 0.822208 1.962566 5 5 5
-0.183891 0.822966 1.964375 5 5 5
-0.174528 0.829698 1.980444 5 5 5
-0.164505 0.833973 1.990649 5 5 5
-0.105726 0.802376 1.915228 5 6 4
-0.045074 0.680057 1.623260 24 19 20
-0.035483 0.667202 1.592575 44 33 36
-0.026471 0.660367 1.576262 41 26 30
-0.017732 0.657046 1.568333 38 22 29
-0.009113 0.656081 1.566031 29 18 21
-0.000518 0.654125 1.561361 22 15 18
0.007993 0.649557 1.550457 27 21 22
0.016382 0.644879 1.539291 31 23 24
0.024775 0.643497 1.535992 41 25 26
0.033206 0.643555 1.536131 50 32 33
0.041754 0.645404 1.540545 46 28 29
0.050792 0.652923 1.558493 32 24 25
0.061215 0.673506 1.607623 24 27 25
0.071917 0.691597 1.650804 2 8 3
-0.277855 0.650091 1.531670 43 28 32
-0.267923 0.646404 1.522984 55 36 39
-0.258519 0.643797 1.516843 41 22 25
-0.250482 0.644532 1.518575 46 29 33
-0.242985 0.646756 1.523814 33 25 26
-0.236311 0.651407 1.534773 19 13 14
-0.227524 0.650365 1.532316 20 11 14
-0.219896 0.652678 1.537768 29 17 23
-0.212108 0.654684 1.542492 40 22 29
-0.203753 0.655034 1.543316 51 32 35
-0.196034 0.657549 1.549242 49 31 30
-0.189489 0.664407 1.565400 41 30 32
-0.183756 0.674899 1.590121 16 11 13
-0.198208 0.848898 2.000079 5 5 5
-0.185092 0.839189 1.977203 5 5 5
-0.174076 0.838389 1.975318 5 5 5
-0.035609 0.678344 1.598237 36 28 29
-0.026489 0.669492 1.577381 45 27 34
-0.017775 0.667280 1.572171 46 25 33
-0.009122 0.665341 1.567602 36 22 26
-0.000519 0.663187 1.562527 33 26 29
0.008015 0.659924 1.554838 26 19 22
0.016434 0.655434 1.544261 28 20 21
0.024848 0.653861 1.540554 33 19 20
0.033242 0.652700 1.537818 43 24 27
0.041862 0.655552 1.544537 40 23 27
0.050964 0.663714 1.563767 29 20 23
0.061117 0.681241 1.605063 35 33 32
0.072646 0.707756 1.667535 14 15 13
-0.278516 0.660062 1.535314 35 26 29
-0.267890 0.654680 1.522797 43 26 29
-0.258881 0.653032 1.518963 42 25 28
-0.251164 0.654642 1.522708 36 23 25
-0.243894 0.657569 1.529516 32 21 23
-0.236313 0.659836 1.534789 33 19 21
-0.228019 0.660206 1.535650 36 19 22
-0.220019 0.661485 1.538625 42 24 25
-0.212438 0.664180 1.544895 52 34 35
-0.204300 0.665284 1.547462 53 35 34
-0.196820 0.668720 1.555454 47 32 30
-0.190169 0.675410 1.571014 31 23 24
-0.186215 0.692769 1.611392 0 0 0
-0.035852 0.691787 1.609107 28 22 23
-0.026584 0.680571 1.583019 35 25 25
-0.017829 0.677945 1.576912 42 27 31
-0.009154 0.676333 1.573162 42 27 31
-0.000519 0.672351 1.563900 37 28 31
0.008031 0.669739 1.557824 30 23 26
0.016497 0.666449 1.550171 31 22 25
0.024932 0.664537 1.545723 40 23 27
0.033249 0.661275 1.538137 39 21 28
0.041948 0.665381 1.547687 36 20 27
0.050890 0.671314 1.561487 43 29 33
0.060832 0.686824 1.597564 34 28 29
0.071283 0.703460 1.636258 11 9 8
0.076262 0.668407 1.554726 6 6 6
-0.291588 0.679313 1.560180 33 28 29
-0.278948 0.669522 1.537694 32 22 28
-0.268470 0.664472 1.526095 34 23 26
-0.259814 0.663750 1.524438 32 17 21
-0.251650 0.664281 1.525657 32 19 21
-0.243686 0.665394 1.528213 32 20 20
-0.236740 0.669465 1.537563 36 22 23
-0.228517 0.670091 1.539001 45 26 29
-0.220385 0.671043 1.541187 45 27 28
-0.213179 0.675002 1.550280 46 26 31
-0.205261 0.676944 1.554740 49 29 34
-0.197938 0.681102 1.564290 38 24 28
-0.190787 0.686252 1.576117 27 23 22
-0.190649 0.718318 1.649763 9 14 12
-0.037288 0.728681 1.673563 0 0 0
-0.026835 0.695769 1.597976 30 25 24
-0.017906 0.689564 1.583724 38 30 30
-0.009153 0.684887 1.572983 41 29 29
-0.000519 0.680743 1.563465 38 24 30
0.008038 0.678893 1.559216 32 21 24
0.016554 0.677265 1.555477 32 22 22
0.024976 0.674220 1.548483 36 22 23
0.033375 0.672253 1.543967 38 20 27
0.042028 0.675158 1.550637 39 21 28
0.050850 0.679348 1.560262 39 25 29
0.060547 0.692336 1.590089 34 29 28
0.071405 0.713655 1.639054 27 28 24
0.080378 0.713467 1.638623 0 0 0
0.086479 0.690399 1.585641 3 6 4
-0.291846 0.688481 1.561559 39 29 35
-0.279141 0.678429 1.538759 35 25 31
-0.269024 0.674234 1.529244 35 22 24
-0.260189 0.673087 1.526643 35 20 18
-0.251803 0.673061 1.526584 36 24 20
-0.243781 0.674041 1.528805 35 23 21
-0.236500 0.677215 1.536004 41 25 26
-0.228390 0.678160 1.538147 40 21 24
-0.220605 0.680180 1.542729 50 28 33
-0.213572 0.684770 1.553139 41 20 29
-0.205883 0.687553 1.559453 38 23 31
-0.197807 0.689230 1.563257 28 22 27
-0.193342 0.704210 1.597232 19 17 17
-0.026750 0.702301 1.592902 22 17 18
-0.017917 0.698673 1.584674 37 29 29
-0.009165 0.694399 1.574980 34 22 22
-0.000521 0.692304 1.570228 41 27 29
0.008067 0.689893 1.564761 35 22 24
0.016575 0.686695 1.557506 34 24 24
0.025038 0.684403 1.552308 39 29 29
0.033452 0.682303 1.547544 35 21 25
0.042054 0.684093 1.551605 36 21 25
0.050888 0.688429 1.561440 39 22 25
0.060443 0.699857 1.587358 36 25 27
0.071697 0.725602 1.645753 32 30 29
-0.292660 0.698996 1.565918 0 0 0
-0.279482 0.687710 1.540636 33 25 25
-0.269674 0.684275 1.532940 38 24 26
-0.260358 0.681905 1.527630 34 19 23
-0.252630 0.683678 1.531601 38 25 27
-0.245068 0.686035 1.536882 40 28 28
-0.237748 0.689261 1.544110 41 23 22
-0.229313 0.689375 1.544365 41 23 22
-0.221159 0.690372 1.546599 50 28 33
-0.213660 0.693578 1.553780 39 20 29
-0.206364 0.697735 1.563092 31 18 26
-0.200777 0.708285 1.586727 26 23 25
-0.193887 0.714983 1.601734 11 11 11
-0.027203 0.723071 1.619852 0 0 0
-0.017988 0.710186 1.590986 35 27 27
-0.009189 0.704856 1.579047 36 24 24
-0.000522 0.702555 1.573892 36 24 20
0.008090 0.700513 1.569317 31 19 19
0.016632 0.697627 1.562853 32 24 25
0.025187 0.697058 1.561577 32 24 25
0.033519 0.692164 1.550614 39 26 28
0.042030 0.692212 1.550720 36 19 22
0.050888 0.696993 1.561431 34 20 22
0.060492 0.709137 1.588636 30 19 22
0.071000 0.727489 1.629750 34 31 33
0.080878 0.736004 1.648825 12 12 12
-0.294746 0.712631 1.577078 0 0 0
-0.279467 0.696127 1.540555 41 28 30
-0.269982 0.693477 1.534689 39 24 28
-0.260946 0.691846 1.531080 34 23 25
-0.253444 0.694311 1.536535 32 21 23
-0.246043 0.697230 1.542995 32 19 21
-0.237358 0.696587 1.541572 42 27 25
-0.229626 0.698801 1.546471 38 24 18
-0.222231 0.702246 1.554096 39 27 23
-0.214519 0.704926 1.560027 32 19 21
-0.207552 0.710378 1.572093 31 25 26
-0.202505 0.723161 1.600380 15 16 14
-0.018180 0.726587 1.607962 25 19 20
-0.009231 0.716848 1.586409 38 30 30
-0.000524 0.712972 1.577833 44 32 26
0.008103 0.710292 1.571901 40 26 28
0.016697 0.708936 1.568901 31 16 24
0.025263 0.707761 1.566300 28 16 22
0.033617 0.702715 1.555134 29 16 18
0.042136 0.702491 1.554638 31 18 16
0.051029 0.707511 1.565747 27 15 13
0.060543 0.718467 1.589993 26 17 14
0.070343 0.729621 1.614678 46 40 41
0.081838 0.753897 1.668401 24 26 26
0.094356 0.781759 1.730060 6 9 7
-0.292833 0.716602 1.566840 0 0 0
-0.278972 0.703333 1.537827 33 21 27
-0.269692 0.701144 1.533040 37 23 29
-0.262026 0.703147 1.537420 34 24 24
-0.254667 0.706131 1.543946 30 22 22
-0.246837 0.707975 1.547976 26 18 18
-0.238099 0.707248 1.546387 28 19 16
-0.230143 0.708880 1.549954 34 25 16
-0.222814 0.712638 1.558172 34 25 22
-0.214851 0.714590 1.562440 30 22 23
-0.208248 0.721416 1.577365 24 19 21
-0.202832 0.733123 1.602963 11 11 11
-0.018022 0.729037 1.594029 19 17 17
-0.009230 0.725447 1.586179 36 25 27
-0.000523 0.720416 1.575178 45 27 28
0.008116 0.720033 1.574340 49 26 31
0.016665 0.716192 1.565943 39 18 27
0.025235 0.715536 1.564508 33 15 22
0.033773 0.714558 1.562369 31 17 18
0.042237 0.712717 1.558345 31 19 17
0.051133 0.717562 1.568938 31 22 18
0.060276 0.723979 1.582970 27 21 16
0.069784 0.732608 1.601836 40 31 27
0.080810 0.753460 1.647428 51 47 46
0.092856 0.778672 1.702555 12 13 11
-0.308542 0.742309 1.603807 0 0 0
-0.294127 0.728404 1.573763 0 0 0
-0.279286 0.712571 1.539556 35 24 27
-0.270020 0.710419 1.534905 33 22 25
-0.261793 0.710950 1.536054 28 17 19
-0.254954 0.715408 1.545685 33 20 22
-0.246887 0.716612 1.548287 32 17 21
-0.238778 0.717775 1.550799 34 21 23
-0.230777 0.719361 1.554225 34 22 20
-0.223048 0.721946 1.559810 35 26 23
-0.215920 0.726761 1.570214 35 24 26
-0.209977 0.736132 1.590460 26 20 21
-0.204859 0.749335 1.618986 10 11 9
-0.018298 0.749075 1.618424 21 22 20
-0.009256 0.736227 1.590665 29 24 23
-0.000525 0.731636 1.580746 40 25 23
0.008127 0.729668 1.576493 49 29 28
0.016724 0.727361 1.571509 56 36 41
0.025285 0.725562 1.567622 41 23 30
0.033732 0.722257 1.560483 36 22 24
0.042299 0.722338 1.560658 37 21 22
0.051069 0.725260 1.566970 40 27 25
0.060102 0.730555 1.578411 35 24 20
0.069529 0.738695 1.595997 49 37 33
0.080068 0.755499 1.632303 51 43 44
0.091470 0.776256 1.677150 0 0 0
-0.305441 0.743561 1.587687 38 33 34
-0.293439 0.735317 1.570085 40 32 32
-0.280330 0.723716 1.545314 35 25 25
-0.271310 0.722276 1.542240 31 22 19
-0.263125 0.723039 1.543868 30 22 22
-0.255217 0.724639 1.547284 35 18 21
-0.246748 0.724699 1.547414 48 27 30
-0.238460 0.725317 1.548733 38 20 19
-0.231288 0.729500 1.557664 38 26 22
-0.223806 0.732988 1.565112 35 24 20
-0.216690 0.738000 1.575814 30 22 23
-0.212443 0.753606 1.609137 33 29 28
-0.206960 0.765992 1.635585 21 25 20
-0.018450 0.764231 1.631825 0 0 0
-0.009290 0.747664 1.596449 29 22 19
-0.000526 0.742426 1.585266 39 28 24
0.008153 0.740643 1.581457 40 27 25
