# .PCD v0.7 - Point Cloud Data file format
VERSION 0.7
FIELDS x y z
SIZE 4 4 4
TYPE F F F
COUNT 1 1 1
WIDTH 1733
HEIGHT 1
VIEWPOINT 0 0 0 1 0 0 0
POINTS 1733
DATA ascii
-0.075121 0.367715 1.511008
-0.067462 0.371192 1.525295
-0.059043 0.370881 1.524016
-0.050212 0.367455 1.509939
-0.041714 0.365582 1.502243
-0.033355 0.364320 1.497056
-0.024974 0.361904 1.487128
-0.016752 0.360582 1.481695
-0.008585 0.359033 1.475329
-0.000487 0.357350 1.468416
0.007542 0.356052 1.463081
0.015536 0.355258 1.459817
0.023511 0.354734 1.457666
0.031423 0.353754 1.453639
0.039293 0.352800 1.449718
0.047182 0.352316 1.447729
0.055112 0.352226 1.447361
0.063172 0.352886 1.450070
0.071229 0.353382 1.452109
0.079522 0.354834 1.458074
0.087866 0.356226 1.463797
0.096473 0.358361 1.472567
0.105485 0.361554 1.485690
0.116646 0.371130 1.525037
0.119280 0.354106 1.455086
0.124568 0.346604 1.424257
0.130852 0.342595 1.407785
0.140476 0.347291 1.427080
0.150004 0.351267 1.443417
0.155680 0.346275 1.422903
0.160626 0.340213 1.397996
0.168406 0.340433 1.398899
0.182137 0.352141 1.447009
-0.306171 0.355477 1.428509
-0.296224 0.352964 1.418411
-0.288401 0.352915 1.418215
-0.281051 0.353458 1.420396
-0.273861 0.354239 1.423534
-0.268064 0.356922 1.434314
-0.262851 0.360567 1.448963
-0.246143 0.371343 1.492267
-0.235143 0.366956 1.474639
-0.225497 0.364444 1.464543
-0.216259 0.362430 1.456450
-0.207709 0.361458 1.452544
-0.199209 0.360499 1.448689
-0.190725 0.359491 1.444640
-0.182896 0.359684 1.445415
-0.175140 0.360043 1.446857
-0.167540 0.360774 1.449794
-0.159751 0.361148 1.451299
-0.151991 0.361633 1.453247
-0.144380 0.362546 1.456915
-0.136992 0.364156 1.463385
-0.129396 0.365380 1.468306
-0.121683 0.366416 1.472466
-0.113976 0.367619 1.477302
-0.106252 0.368945 1.482632
-0.098567 0.370640 1.489442
-0.090912 0.372760 1.497963
-0.082857 0.373502 1.500945
-0.075263 0.376715 1.513853
-0.067503 0.379793 1.526223
-0.059130 0.379803 1.526263
-0.050360 0.376844 1.514372
-0.041817 0.374756 1.505983
-0.033348 0.372459 1.496753
-0.024957 0.369809 1.486101
-0.016721 0.368032 1.478963
-0.008577 0.366774 1.473906
-0.000488 0.365537 1.468936
0.007555 0.364681 1.465495
0.015569 0.364040 1.462921
0.023485 0.362326 1.456032
0.031386 0.361307 1.451935
0.039288 0.360716 1.449562
0.047186 0.360284 1.447827
0.055055 0.359796 1.445866
0.063098 0.360420 1.448374
0.071205 0.361230 1.451629
0.079403 0.362290 1.455885
0.087768 0.363852 1.462163
0.096312 0.365828 1.470106
0.105641 0.370256 1.487898
0.116774 0.379914 1.526711
0.125216 0.356263 1.431668
0.132385 0.354425 1.424281
0.139932 0.353745 1.421550
0.146552 0.350921 1.410198
0.153563 0.349266 1.403550
0.161033 0.348765 1.401534
0.169783 0.350955 1.410337
-0.291594 0.364690 1.433914
-0.283489 0.364386 1.432716
-0.277220 0.366492 1.440998
-0.272749 0.371168 1.459382
-0.245939 0.379217 1.491032
-0.234457 0.373953 1.470332
-0.225205 0.371998 1.462647
-0.216385 0.370637 1.457297
-0.208046 0.370027 1.454897
-0.199248 0.368520 1.448973
-0.191049 0.368041 1.447090
-0.183316 0.368459 1.448731
-0.175530 0.368803 1.450084
-0.167568 0.368789 1.450032
-0.160072 0.369854 1.454217
-0.152204 0.370125 1.455284
-0.144313 0.370367 1.456233
-0.137071 0.372400 1.464228
-0.129210 0.372900 1.466195
-0.121638 0.374357 1.471922
-0.113912 0.375515 1.476474
-0.106240 0.377037 1.482461
-0.098708 0.379353 1.491566
-0.090999 0.381345 1.499397
-0.083148 0.383078 1.506212
-0.075383 0.385634 1.516263
-0.067682 0.389197 1.530272
-0.059478 0.390464 1.535253
-0.050492 0.386165 1.518350
-0.041833 0.383161 1.506537
-0.033390 0.381154 1.498647
-0.025019 0.378904 1.489799
-0.016761 0.377047 1.482501
-0.008584 0.375155 1.475062
-0.000488 0.373637 1.469090
0.007557 0.372835 1.465938
0.015573 0.372164 1.463300
0.023511 0.370727 1.457649
0.031387 0.369284 1.451978
0.039291 0.368694 1.449657
0.047152 0.367966 1.446795
0.055047 0.367674 1.445647
0.063028 0.367955 1.446750
0.071149 0.368902 1.450475
0.079222 0.369434 1.452568
0.087495 0.370715 1.457604
0.096111 0.373118 1.467052
0.105380 0.377484 1.484216
0.116008 0.385744 1.516693
0.125619 0.365290 1.436274
0.131596 0.360079 1.415784
0.138536 0.357940 1.407374
0.145384 0.355799 1.398957
0.153624 0.357110 1.404109
0.163445 0.361795 1.422530
-0.330506 0.503846 1.939217
-0.245731 0.387071 1.489770
-0.234353 0.381852 1.469682
-0.225395 0.380344 1.463879
-0.216497 0.378829 1.458050
-0.207634 0.377262 1.452017
-0.198998 0.375999 1.447156
-0.191389 0.376652 1.449671
-0.183446 0.376675 1.449757
-0.175592 0.376891 1.450591
-0.167700 0.377045 1.451181
-0.159872 0.377362 1.452402
-0.152358 0.378493 1.456756
-0.144439 0.378688 1.457505
-0.137034 0.380332 1.463834
-0.129377 0.381441 1.468100
-0.121651 0.382476 1.472086
-0.114022 0.383987 1.477900
-0.106404 0.385767 1.484752
-0.098788 0.387854 1.492783
-0.091108 0.390038 1.501191
-0.083308 0.392096 1.509111
-0.075705 0.395639 1.522749
-0.067727 0.397855 1.531276
-0.059571 0.399512 1.537654
-0.050646 0.395697 1.522973
-0.041978 0.392785 1.511763
-0.033415 0.389662 1.499742
-0.025077 0.387980 1.493270
-0.016790 0.385835 1.485015
-0.008594 0.383726 1.476896
-0.000488 0.381902 1.469878
0.007563 0.381167 1.467046
0.015584 0.380457 1.464316
0.023524 0.378931 1.458441
0.031401 0.377427 1.452651
0.039281 0.376554 1.449294
0.047186 0.376174 1.447831
0.055133 0.376190 1.447891
0.063107 0.376367 1.448573
0.071129 0.376758 1.450078
0.079295 0.377751 1.453901
0.087603 0.379182 1.459409
0.096041 0.380887 1.465969
0.105211 0.385008 1.481832
0.115756 0.393208 1.513391
-0.330780 0.514914 1.940830
-0.246807 0.396976 1.496293
-0.234611 0.390345 1.471299
-0.225313 0.388235 1.463348
-0.216474 0.386788 1.457893
-0.207772 0.385485 1.452982
-0.199054 0.384047 1.447562
-0.191346 0.384520 1.449345
-0.183431 0.384600 1.449644
-0.175425 0.384486 1.449215
-0.167457 0.384448 1.449072
-0.159612 0.384705 1.450043
-0.152222 0.386141 1.455453
-0.144910 0.387947 1.462262
-0.137221 0.388895 1.465836
-0.129793 0.390747 1.472816
-0.122232 0.392420 1.479119
-0.114405 0.393411 1.482858
-0.106766 0.395256 1.489811
-0.099001 0.396897 1.495998
-0.091262 0.398951 1.503736
-0.083693 0.402229 1.516092
-0.075990 0.405517 1.528488
-0.068462 0.410666 1.547893
-0.059628 0.408337 1.539117
-0.050764 0.404999 1.526533
-0.042089 0.402141 1.515760
-0.033541 0.399397 1.505417
-0.025135 0.397086 1.496707
-0.016817 0.394613 1.487389
-0.008607 0.392415 1.479104
-0.000490 0.391576 1.475940
0.007580 0.390077 1.470291
0.015570 0.388145 1.463009
0.023527 0.386986 1.458641
0.031437 0.385838 1.454312
0.039349 0.385172 1.451802
0.047235 0.384516 1.449330
0.055163 0.384348 1.448696
0.063127 0.384436 1.449029
0.071061 0.384348 1.448696
0.079201 0.385275 1.452189
0.087666 0.387468 1.460457
0.096066 0.389034 1.466358
0.105163 0.392961 1.481160
0.117221 0.406595 1.532548
-0.331138 0.526133 1.942931
-0.247637 0.406550 1.501330
-0.234930 0.398961 1.473304
-0.225230 0.396118 1.462807
-0.216144 0.394186 1.455670
-0.207640 0.393209 1.452063
-0.199359 0.392590 1.449779
-0.191298 0.392373 1.448977
-0.183017 0.391667 1.446368
-0.175436 0.392462 1.449304
-0.167581 0.392691 1.450152
-0.159761 0.393027 1.451392
-0.152152 0.393948 1.454792
-0.144776 0.395604 1.460908
-0.137228 0.396960 1.465914
-0.129796 0.398838 1.472850
-0.122307 0.400780 1.480023
-0.114421 0.401606 1.483072
-0.106584 0.402742 1.487267
-0.099028 0.405216 1.496404
-0.091380 0.407728 1.505678
-0.083779 0.410968 1.517645
-0.076320 0.415698 1.535111
-0.068666 0.420409 1.552508
-0.060611 0.423656 1.564499
-0.050922 0.414661 1.531283
-0.042137 0.410922 1.517474
-0.033591 0.408265 1.507664
-0.025173 0.405909 1.498964
-0.016850 0.403567 1.490314
-0.008622 0.401209 1.481606
-0.000489 0.399225 1.474280
0.007567 0.397478 1.467826
0.015570 0.396175 1.463016
0.023517 0.394826 1.458033
0.031452 0.394000 1.454983
0.039357 0.393218 1.452098
0.047193 0.392119 1.448037
0.055107 0.391895 1.447209
0.063116 0.392321 1.448784
0.071142 0.392740 1.450330
0.079245 0.393459 1.452985
0.087669 0.395496 1.460510
0.096412 0.398508 1.471632
0.105334 0.401742 1.483574
0.116357 0.411946 1.521257
-0.330788 0.536226 1.940877
-0.247977 0.415357 1.503388
-0.234733 0.406703 1.472064
-0.225056 0.403833 1.461678
-0.215960 0.401831 1.454430
-0.207523 0.400950 1.451243
-0.199324 0.400476 1.449527
-0.191099 0.399909 1.447475
-0.182937 0.399429 1.445738
-0.175341 0.400197 1.448516
-0.167789 0.401145 1.451949
-0.160009 0.401615 1.453650
-0.152274 0.402253 1.455959
-0.144653 0.403279 1.459671
-0.137058 0.404502 1.464098
-0.129653 0.406470 1.471224
-0.122178 0.408468 1.478455
-0.114406 0.409691 1.482879
-0.106701 0.411352 1.488894
-0.099027 0.413424 1.496391
-0.091550 0.416765 1.508487
-0.084000 0.420401 1.521647
-0.076524 0.425260 1.539232
-0.068624 0.428670 1.551576
-0.059889 0.427091 1.545861
-0.051089 0.424445 1.536284
-0.042169 0.419569 1.518636
-0.033610 0.416773 1.508515
-0.025192 0.414460 1.500144
-0.016881 0.412499 1.493045
-0.008635 0.409976 1.483912
-0.000490 0.407520 1.475023
0.007565 0.405455 1.467549
0.015569 0.404172 1.462906
0.023513 0.402749 1.457754
0.031477 0.402304 1.456145
0.039363 0.401250 1.452327
0.047207 0.400184 1.448470
0.055075 0.399609 1.446389
0.063039 0.399783 1.447020
0.071152 0.400757 1.450543
0.079219 0.401303 1.452519
0.087491 0.402691 1.457545
0.096159 0.405516 1.467771
0.105217 0.409424 1.481914
0.116292 0.420058 1.520404
-0.330990 0.547209 1.942059
-0.247316 0.422477 1.499380
-0.234819 0.414932 1.472605
-0.225564 0.412783 1.464978
-0.216276 0.410411 1.456559
-0.207932 0.409718 1.454099
-0.199468 0.408725 1.450577
-0.191234 0.408139 1.448496
-0.183125 0.407780 1.447223
-0.175350 0.408166 1.448593
-0.167626 0.408715 1.450539
-0.159823 0.409113 1.451953
-0.152134 0.409865 1.454620
-0.144740 0.411535 1.460549
-0.137325 0.413338 1.466946
-0.129912 0.415372 1.474166
-0.122263 0.416871 1.479486
-0.114535 0.418298 1.484551
-0.106840 0.420069 1.490833
-0.099399 0.423219 1.502015
-0.091712 0.425791 1.511144
-0.084171 0.429624 1.524747
-0.076528 0.433728 1.539310
-0.051423 0.435712 1.546351
-0.042303 0.429269 1.523487
-0.033653 0.425595 1.510447
-0.025237 0.423437 1.502788
-0.016875 0.420541 1.492509
-0.008631 0.417933 1.483254
-0.000490 0.416226 1.477198
0.007580 0.414309 1.470393
0.015589 0.412744 1.464837
0.023565 0.411669 1.461023
0.031449 0.409929 1.454847
0.039381 0.409403 1.452980
0.047260 0.408590 1.450096
0.055120 0.407877 1.447567
0.063116 0.408217 1.448772
0.071215 0.409075 1.451817
0.079225 0.409302 1.452624
0.087443 0.410464 1.456747
0.096030 0.413016 1.465804
0.105588 0.419028 1.487142
0.116586 0.429483 1.524245
-0.330993 0.557870 1.942075
-0.248894 0.433453 1.508951
-0.235532 0.424297 1.477075
-0.225209 0.420159 1.462669
-0.216760 0.419340 1.459821
-0.208109 0.418053 1.455340
-0.199399 0.416540 1.450073
-0.191471 0.416602 1.450287
-0.183537 0.416657 1.450480
-0.175679 0.416896 1.451310
-0.167609 0.416631 1.450387
-0.159907 0.417300 1.452719
-0.152279 0.418243 1.456001
-0.144784 0.419677 1.460993
-0.137449 0.421768 1.468271
-0.129940 0.423553 1.474486
-0.122539 0.425948 1.482825
-0.114850 0.427615 1.488626
-0.107134 0.429430 1.494944
-0.099507 0.431926 1.503635
-0.091692 0.433993 1.510829
-0.084157 0.437917 1.524491
-0.076854 0.444055 1.545857
-0.042532 0.439993 1.531718
-0.033744 0.435055 1.514527
-0.025273 0.432306 1.504957
-0.016888 0.429079 1.493722
-0.008642 0.426601 1.485097
-0.000491 0.424544 1.477935
0.007590 0.422950 1.472388
0.015611 0.421375 1.466904
0.023568 0.419736 1.461197
0.031428 0.417634 1.453880
0.039353 0.417075 1.451934
0.047285 0.416770 1.450873
0.055223 0.416600 1.450280
0.063172 0.416541 1.450074
0.071248 0.417238 1.452501
0.079333 0.417843 1.454609
0.087644 0.419417 1.460086
0.096102 0.421377 1.466910
0.105532 0.426961 1.486350
0.115947 0.435447 1.515891
-0.330742 0.568097 1.940608
-0.248780 0.441530 1.508256
-0.235432 0.432219 1.476451
-0.225244 0.428252 1.462901
-0.216484 0.426807 1.457963
-0.208175 0.426174 1.455801
-0.199388 0.424473 1.449992
-0.191231 0.424028 1.448472
-0.183191 0.423814 1.447740
-0.175352 0.424070 1.448613
-0.167394 0.424046 1.448533
-0.159758 0.424874 1.451362
-0.152095 0.425716 1.454238
-0.144693 0.427422 1.460067
-0.137305 0.429374 1.466731
-0.129965 0.431726 1.474767
-0.122502 0.433955 1.482382
-0.114791 0.435561 1.487868
-0.107172 0.437785 1.495466
-0.099522 0.440244 1.503863
-0.091868 0.443131 1.513727
-0.084435 0.447757 1.529527
-0.077587 0.456854 1.560604
-0.042681 0.449969 1.537086
-0.033783 0.443877 1.516275
-0.025286 0.440780 1.505696
-0.016908 0.437791 1.495485
-0.008658 0.435542 1.487803
-0.000491 0.433008 1.479146
0.007592 0.431104 1.472642
0.015629 0.429925 1.468616
0.023570 0.427784 1.461303
0.031484 0.426375 1.456488
0.039383 0.425370 1.453054
0.047269 0.424591 1.450396
0.055291 0.425075 1.452049
0.063257 0.425068 1.452024
0.071280 0.425396 1.453143
0.079319 0.425752 1.454359
0.087800 0.428190 1.462688
0.096069 0.429277 1.466401
0.105422 0.434664 1.484805
0.116130 0.444467 1.518292
-0.330701 0.578673 1.940364
-0.249604 0.451297 1.513256
-0.235879 0.441157 1.479255
-0.225881 0.437512 1.467036
-0.216663 0.435166 1.459169
-0.208116 0.434038 1.455387
-0.199615 0.432921 1.451640
-0.191388 0.432330 1.449658
-0.183395 0.432240 1.449357
-0.175256 0.431782 1.447820
-0.167753 0.432920 1.451637
-0.159980 0.433442 1.453387
-0.152107 0.433731 1.454356
-0.144779 0.435695 1.460940
-0.137219 0.437146 1.465808
-0.130176 0.440531 1.477156
-0.122550 0.442262 1.482960
-0.114841 0.443916 1.488507
-0.107187 0.446057 1.495686
-0.099660 0.449118 1.505950
-0.092107 0.452608 1.517653
-0.084561 0.456835 1.531825
-0.077387 0.464216 1.556575
-0.043045 0.462317 1.550209
-0.033925 0.454092 1.522629
-0.025305 0.449383 1.506840
-0.016917 0.446230 1.496266
-0.008662 0.443908 1.488482
-0.000490 0.440526 1.477141
0.007590 0.439062 1.472233
0.015607 0.437368 1.466552
0.023535 0.435166 1.459169
0.031495 0.434522 1.457008
0.039353 0.433008 1.451933
0.047219 0.432092 1.448861
0.055195 0.432295 1.449540
0.063151 0.432305 1.449574
0.071207 0.432931 1.451673
0.079400 0.434173 1.455840
0.087734 0.435891 1.461600
0.096238 0.438091 1.468976
0.105541 0.443312 1.486484
0.116722 0.455103 1.526021
-0.330284 0.588576 1.937916
-0.250711 0.461638 1.519967
-0.235547 0.448640 1.477170
-0.225652 0.445110 1.465547
-0.216562 0.442967 1.458490
-0.208187 0.442176 1.455886
-0.199518 0.440673 1.450936
-0.191363 0.440228 1.449474
-0.183263 0.439876 1.448314
-0.175285 0.439798 1.448057
-0.167920 0.441323 1.453078
-0.159907 0.441214 1.452720
-0.152161 0.441869 1.454875
-0.145089 0.444660 1.464064
-0.137444 0.445919 1.468212
-0.130139 0.448510 1.476741
-0.122406 0.449869 1.481214
-0.114783 0.451855 1.487754
-0.107350 0.454955 1.497961
-0.099688 0.457511 1.506377
-0.092221 0.461507 1.519534
-0.085134 0.468388 1.542191
-0.034129 0.465224 1.531773
-0.025327 0.458048 1.508145
-0.016944 0.455161 1.498641
-0.008677 0.452903 1.491205
-0.000491 0.449586 1.480283
0.007584 0.446806 1.471130
0.015573 0.444434 1.463322
0.023520 0.442881 1.458207
0.031431 0.441610 1.454022
0.039371 0.441185 1.452624
0.047264 0.440456 1.450222
0.055248 0.440668 1.450920
0.063130 0.440119 1.449113
0.071271 0.441288 1.452961
0.079427 0.442310 1.456326
0.087716 0.443817 1.461288
0.096304 0.446459 1.469987
0.105793 0.452546 1.490030
0.116809 0.463826 1.527169
-0.330553 0.599698 1.939496
-0.251464 0.471390 1.524530
-0.235992 0.457608 1.479958
-0.225823 0.453495 1.466659
-0.216541 0.450926 1.458348
-0.207986 0.449729 1.454477
-0.199454 0.448490 1.450470
-0.191624 0.448791 1.451446
-0.183316 0.447952 1.448730
-0.175485 0.448255 1.449710
-0.167801 0.448980 1.452054
-0.159748 0.448738 1.451273
-0.152110 0.449701 1.454386
-0.144887 0.452064 1.462028
-0.137578 0.454421 1.469653
-0.130062 0.456342 1.475865
-0.122425 0.458068 1.481446
-0.114833 0.460221 1.488409
-0.107686 0.464620 1.502636
-0.100180 0.468075 1.513810
-0.092638 0.471968 1.526401
-0.085103 0.476680 1.541639
-0.034226 0.474981 1.536145
-0.025383 0.467364 1.511511
-0.016981 0.464397 1.501917
-0.008676 0.460990 1.490896
-0.000492 0.457900 1.480903
0.007579 0.454581 1.470171
0.015591 0.452996 1.465045
0.023536 0.451196 1.459222
0.031409 0.449282 1.453033
0.039373 0.449174 1.452684
0.047334 0.449077 1.452370
0.055211 0.448331 1.449955
0.063159 0.448273 1.449767
0.071314 0.449535 1.453849
0.079366 0.449959 1.455220
0.087733 0.451925 1.461578
0.096264 0.454337 1.469382
0.105894 0.461164 1.491461
0.116488 0.470905 1.522964
-0.331239 0.611607 1.943520
-0.236022 0.465789 1.480151
-0.225834 0.461565 1.466728
-0.217065 0.460038 1.461874
-0.208258 0.458308 1.456378
-0.199923 0.457522 1.453879
-0.191661 0.456845 1.451729
-0.183504 0.456369 1.450218
-0.175482 0.456201 1.449683
-0.167647 0.456528 1.450723
-0.159772 0.456771 1.451493
-0.152203 0.457959 1.455270
-0.144768 0.459709 1.460830
-0.137478 0.462149 1.468584
-0.130127 0.464675 1.476609
-0.122500 0.466484 1.482360
-0.115171 0.469767 1.492792
-0.107852 0.473595 1.504955
-0.100218 0.476564 1.514390
-0.093147 0.482985 1.534796
-0.087024 0.496088 1.576433
-0.034364 0.485366 1.542361
-0.025501 0.477870 1.518540
-0.016993 0.472975 1.502987
-0.008685 0.469686 1.492535
-0.000492 0.466402 1.482098
0.007585 0.463003 1.471299
0.015591 0.461039 1.465057
0.023480 0.458101 1.455721
0.031403 0.457166 1.452751
0.039372 0.457132 1.452640
0.047291 0.456630 1.451045
0.055170 0.455945 1.448868
0.063290 0.457175 1.452778
0.071401 0.458070 1.455622
0.079574 0.459143 1.459031
0.087860 0.460609 1.463689
0.096404 0.463072 1.471517
0.106084 0.470190 1.494137
0.117039 0.481530 1.530171
-0.236884 0.475641 1.485554
-0.226309 0.470602 1.469816
-0.217564 0.469135 1.465235
-0.208610 0.467088 1.458842
-0.199743 0.465082 1.452576
-0.191415 0.464213 1.449861
-0.183608 0.464589 1.451036
-0.175541 0.464313 1.450173
-0.167530 0.464164 1.449710
-0.159590 0.464207 1.449842
-0.152183 0.465884 1.455080
-0.144647 0.467333 1.459607
-0.137038 0.468701 1.463879
-0.130139 0.472820 1.476745
-0.122839 0.475932 1.486464
-0.115620 0.479819 1.498605
-0.107981 0.482430 1.506760
-0.100688 0.487144 1.521482
-0.093504 0.493289 1.540673
-0.086436 0.501327 1.565780
-0.034836 0.500609 1.563536
-0.025562 0.487355 1.522140
-0.017030 0.482280 1.506290
-0.008685 0.477862 1.492491
-0.000492 0.474617 1.482358
0.007578 0.470650 1.469967
0.015563 0.468224 1.462389
0.023495 0.466380 1.456630
0.031400 0.465086 1.452590
0.039431 0.465804 1.454832
0.047325 0.464926 1.452090
0.055156 0.463783 1.448519
0.063308 0.465276 1.453182
0.071478 0.466560 1.457192
0.079635 0.467505 1.460145
0.088009 0.469433 1.466167
0.096718 0.472681 1.476311
0.106399 0.479806 1.498562
0.117379 0.491349 1.534614
-0.315222 0.622368 1.911070
-0.237337 0.484717 1.488395
-0.226996 0.480119 1.474276
-0.217377 0.476764 1.463974
-0.208805 0.475537 1.460206
-0.200111 0.473924 1.455251
-0.191460 0.472279 1.450202
-0.183353 0.471895 1.449023
-0.175206 0.471369 1.447406
-0.167284 0.471425 1.447580
-0.159657 0.472361 1.450452
-0.152317 0.474285 1.456361
-0.144573 0.475100 1.458865
-0.136950 0.476426 1.462935
-0.129553 0.478757 1.470092
-0.122765 0.483795 1.485562
-0.115458 0.487359 1.496508
-0.108238 0.491867 1.510350
-0.100992 0.496992 1.526087
-0.093840 0.503549 1.546220
-0.025629 0.497002 1.526116
-0.017001 0.489700 1.503695
-0.008664 0.484855 1.488819
-0.000490 0.480886 1.476631
0.007567 0.478035 1.467875
0.015559 0.476117 1.461987
0.023476 0.473991 1.455459
0.031407 0.473168 1.452930
0.039343 0.472722 1.451562
0.047259 0.472239 1.450079
0.055248 0.472515 1.450927
0.063410 0.474017 1.455537
0.071522 0.474845 1.458081
0.079716 0.476001 1.461631
0.088113 0.478044 1.467903
0.096696 0.480673 1.475975
0.106495 0.488470 1.499917
0.118603 0.504979 1.550612
-0.317746 0.637921 1.926372
-0.237835 0.493919 1.491519
-0.227092 0.488416 1.474903
-0.217810 0.485764 1.466895
-0.208909 0.483791 1.460935
-0.200495 0.482833 1.458044
-0.191632 0.480670 1.451510
-0.183221 0.479501 1.447980
-0.175364 0.479742 1.448709
-0.167686 0.480518 1.451052
-0.159719 0.480506 1.451015
-0.151851 0.480802 1.451910
-0.144324 0.482271 1.456346
-0.137099 0.484983 1.464533
-0.129727 0.487478 1.472071
-0.122623 0.491377 1.483844
-0.115642 0.496362 1.498896
-0.108357 0.500701 1.512001
-0.101202 0.506414 1.529251
-0.094117 0.513544 1.550782
-0.025785 0.508461 1.535432
-0.017027 0.498709 1.505985
-0.008673 0.493544 1.490387
-0.000491 0.489738 1.478893
0.007568 0.486162 1.468096
0.015537 0.483456 1.459923
0.023490 0.482280 1.456372
0.031419 0.481327 1.453494
0.039317 0.480374 1.450618
0.047220 0.479796 1.448870
0.055240 0.480408 1.450718
0.063407 0.481975 1.455451
0.071569 0.483166 1.459048
0.079853 0.484850 1.464132
0.088161 0.486365 1.468707
0.096806 0.489325 1.477648
0.106987 0.498996 1.506851
-0.318068 0.649149 1.928326
-0.240067 0.506816 1.505520
-0.227510 0.497422 1.477615
-0.218316 0.494960 1.470302
-0.209129 0.492326 1.462475
-0.200483 0.490804 1.457955
-0.191672 0.488735 1.451810
-0.183526 0.488257 1.450388
-0.175674 0.488553 1.451269
-0.167815 0.488857 1.452170
-0.159768 0.488616 1.451456
-0.152016 0.489299 1.453483
-0.144353 0.490362 1.456642
-0.137103 0.493031 1.464569
-0.130063 0.496836 1.475875
-0.122942 0.500819 1.487704
-0.115672 0.504717 1.499285
-0.108507 0.509702 1.514093
-0.101667 0.517170 1.536275
-0.025990 0.520998 1.547646
-0.017093 0.508938 1.511823
-0.008681 0.502184 1.491761
-0.000491 0.498155 1.479791
0.007570 0.494320 1.468400
0.015556 0.492066 1.461704
0.023523 0.490955 1.458402
0.031453 0.489818 1.455025
0.039393 0.489280 1.453427
0.047228 0.487834 1.449132
0.055259 0.488532 1.451205
0.063438 0.490204 1.456173
0.071653 0.491748 1.460759
0.079886 0.493093 1.464754
0.088408 0.495809 1.472822
0.097105 0.498973 1.482222
0.107094 0.507773 1.508363
-0.318806 0.661260 1.932798
-0.241092 0.517275 1.511945
-0.228090 0.506820 1.481385
-0.218449 0.503334 1.471196
-0.209336 0.500844 1.463919
-0.200350 0.498474 1.456991
-0.191901 0.497296 1.453549
-0.183861 0.497123 1.453042
-0.175706 0.496608 1.451538
-0.167670 0.496395 1.450914
-0.159734 0.496474 1.451145
-0.151978 0.497150 1.453119
-0.144553 0.499045 1.458659
-0.137271 0.501682 1.466366
-0.130086 0.505026 1.476141
-0.122843 0.508572 1.486505
-0.115829 0.513641 1.501323
-0.108978 0.520260 1.520668
-0.102300 0.528874 1.545847
-0.094470 0.532550 1.556592
-0.017175 0.519720 1.519090
-0.008681 0.510366 1.491749
-0.000491 0.506217 1.479623
0.007572 0.502496 1.468748
0.015544 0.499713 1.460611
0.023464 0.497698 1.454723
0.031461 0.497929 1.455399
0.039435 0.497785 1.454977
0.047273 0.496252 1.450495
0.055317 0.497016 1.452728
0.063489 0.498595 1.457344
0.071671 0.499884 1.461113
0.079917 0.501324 1.465320
0.088327 0.503430 1.471475
0.097069 0.506917 1.481668
0.107160 0.516365 1.509285
-0.320276 0.674962 1.941707
-0.244946 0.533973 1.536114
-0.228220 0.515241 1.482226
-0.219154 0.513058 1.475947
-0.209559 0.509421 1.465483
-0.200667 0.507270 1.459296
-0.192050 0.505663 1.454674
-0.184057 0.505633 1.454585
-0.175910 0.505158 1.453220
-0.167631 0.504240 1.450578
-0.159864 0.504848 1.452329
-0.151989 0.505160 1.453226
-0.144521 0.506937 1.458336
-0.137098 0.509086 1.464520
-0.129907 0.512421 1.474113
-0.122852 0.516767 1.486615
-0.115967 0.522501 1.503113
-0.109333 0.530326 1.525623
-0.102878 0.540393 1.554581
-0.017178 0.528155 1.519377
-0.008684 0.518725 1.492249
-0.000492 0.514812 1.480993
0.007572 0.510592 1.468852
0.015572 0.508649 1.463264
0.023498 0.506415 1.456836
0.031447 0.505701 1.454783
0.039438 0.505802 1.455072
0.047347 0.505004 1.452777
0.055346 0.505258 1.453509
0.063500 0.506678 1.457592
0.071709 0.508174 1.461896
0.079963 0.509657 1.466162
0.088290 0.511289 1.470856
0.097415 0.516881 1.486945
0.107963 0.528578 1.520592
-0.229307 0.525866 1.489285
-0.219366 0.521661 1.477374
-0.209945 0.518414 1.468179
-0.201031 0.516212 1.461943
-0.192161 0.513943 1.455517
-0.184050 0.513595 1.454531
-0.175698 0.512513 1.451466
-0.167726 0.512491 1.451406
-0.160032 0.513357 1.453857
-0.152229 0.513944 1.455521
-0.144533 0.514979 1.458452
-0.137160 0.517358 1.465188
-0.129831 0.520204 1.473249
-0.122793 0.524673 1.485905
-0.115989 0.530847 1.503389
-0.109373 0.538896 1.526186
-0.102859 0.548820 1.554291
-0.017281 0.539687 1.528426
-0.008696 0.527670 1.494393
-0.000491 0.521916 1.478098
0.007581 0.519271 1.470606
0.015567 0.516495 1.462745
0.023505 0.514561 1.457268
0.031417 0.513188 1.453379
0.039350 0.512641 1.451831
0.047311 0.512589 1.451683
0.055457 0.514258 1.456410
0.063605 0.515527 1.460003
0.071785 0.516744 1.463450
0.080066 0.518370 1.468055
0.088514 0.520676 1.474586
0.097953 0.527944 1.495167
0.108982 0.541992 1.534952
-0.230777 0.537461 1.498830
-0.219677 0.530518 1.479468
-0.210401 0.527615 1.471371
-0.201171 0.524598 1.462958
-0.192280 0.522253 1.456419
-0.183943 0.521274 1.453689
-0.175684 0.520436 1.451352
-0.167736 0.520487 1.451493
-0.159953 0.521077 1.453139
-0.152576 0.523123 1.458846
-0.144753 0.523778 1.460672
-0.137210 0.525589 1.465721
-0.130139 0.529540 1.476741
-0.122891 0.533252 1.487093
-0.116305 0.540564 1.507484
-0.109918 0.549997 1.533790
-0.017327 0.549548 1.532536
-0.008749 0.539161 1.503572
-0.000491 0.530038 1.478128
0.007573 0.526771 1.469018
0.015565 0.524453 1.462553
0.023502 0.522494 1.457092
0.031448 0.521671 1.454796
0.039359 0.520726 1.452161
0.047363 0.521120 1.453259
0.055506 0.522714 1.457704
0.063591 0.523420 1.459674
0.072003 0.526364 1.467883
0.080675 0.530424 1.479204
0.088994 0.531637 1.482588
0.098350 0.538316 1.501214
0.110599 0.558581 1.557727
-0.221051 0.542005 1.488720
-0.211116 0.537507 1.476366
-0.201438 0.533333 1.464903
-0.192634 0.531220 1.459097
-0.184053 0.529566 1.454556
-0.175846 0.528888 1.452693
-0.168020 0.529344 1.453944
-0.160181 0.529804 1.455209
-0.152645 0.531367 1.459501
-0.145187 0.533388 1.465054
-0.137468 0.534635 1.468477
-0.130232 0.538028 1.477798
-0.123101 0.542335 1.489627
-0.116620 0.550323 1.511569
-0.109971 0.558684 1.534532
-0.108154 0.595010 1.634308
-0.017396 0.560180 1.538641
-0.008801 0.550642 1.512443
-0.000492 0.540042 1.483330
0.007596 0.536473 1.473526
0.015626 0.534555 1.468258
0.023552 0.531619 1.460195
0.031485 0.530277 1.456507
0.039380 0.528982 1.452950
0.047425 0.529788 1.455165
0.055564 0.531263 1.459217
0.063676 0.532143 1.461634
0.072199 0.535872 1.471877
0.081091 0.541319 1.486838
0.089364 0.542014 1.488746
0.099063 0.550517 1.512101
-0.223186 0.555487 1.503098
-0.211686 0.547081 1.480351
-0.201756 0.542225 1.467212
-0.192638 0.539238 1.459129
-0.184062 0.537574 1.454628
-0.175977 0.537258 1.453772
-0.168144 0.537720 1.455023
-0.160171 0.537755 1.455116
-0.152553 0.539049 1.458619
-0.145252 0.541670 1.465712
-0.138021 0.544873 1.474377
-0.130558 0.547504 1.481497
-0.123584 0.552669 1.495474
-0.116895 0.559934 1.515132
-0.110287 0.568734 1.538943
-0.103376 0.577292 1.562099
-0.017466 0.570893 1.544786
-0.008833 0.560958 1.517903
-0.000495 0.551052 1.491098
0.007615 0.545920 1.477211
0.015629 0.542728 1.468574
0.023558 0.539759 1.460540
0.031503 0.538586 1.457365
0.039423 0.537536 1.454525
0.047405 0.537552 1.454569
0.055463 0.538293 1.456573
0.063896 0.542028 1.466680
0.072512 0.546309 1.478264
0.081449 0.551906 1.493407
0.090527 0.557346 1.508129
0.102202 0.576524 1.560022
-0.226238 0.571443 1.523651
-0.211841 0.555612 1.481440
-0.201640 0.549960 1.466370
-0.192292 0.546260 1.456505
-0.184459 0.546732 1.457763
-0.176073 0.545532 1.454564
-0.167975 0.545153 1.453554
-0.160384 0.546467 1.457057
-0.152728 0.547682 1.460296
-0.145382 0.550204 1.467022
-0.138273 0.553976 1.477078
-0.131245 0.558556 1.489289
-0.123982 0.562683 1.500293
-0.116927 0.568404 1.515549
-0.110512 0.578354 1.542078
-0.017697 0.587056 1.565279
-0.008857 0.570838 1.522038
-0.000497 0.560971 1.495730
0.007630 0.555118 1.480122
0.015669 0.552191 1.472320
0.023616 0.549125 1.464144
0.031497 0.546474 1.457076
0.039429 0.545604 1.454755
0.047389 0.545345 1.454064
0.055537 0.547011 1.458507
0.063898 0.550097 1.466736
0.072488 0.554241 1.477785
0.081467 0.560223 1.493735
0.092032 0.575026 1.533204
0.103134 0.590420 1.574249
-0.211581 0.563049 1.479623
-0.201692 0.558148 1.466744
-0.192929 0.556089 1.461331
-0.184942 0.556182 1.461578
-0.176115 0.553648 1.454917
-0.167974 0.553126 1.453547
-0.160117 0.553538 1.454629
-0.153031 0.556795 1.463188
-0.145626 0.559193 1.469491
-0.138515 0.563064 1.479663
-0.131454 0.567629 1.491659
-0.124436 0.573004 1.505782
-0.117489 0.579492 1.522832
-0.111093 0.589899 1.550181
-0.017757 0.597655 1.570564
-0.008877 0.580504 1.525492
-0.000500 0.572755 1.505129
0.007641 0.564048 1.482248
0.015691 0.561080 1.474448
0.023655 0.558086 1.466579
0.031536 0.555154 1.458874
0.039415 0.553392 1.454244
0.047447 0.553995 1.455830
0.055614 0.555782 1.460527
0.064070 0.559646 1.470681
0.072589 0.563132 1.479842
0.081303 0.567272 1.490720
0.091826 0.582129 1.529762
0.102813 0.597193 1.569348
-0.212265 0.573015 1.484407
-0.202379 0.568127 1.471744
-0.193521 0.565838 1.465815
-0.184777 0.563702 1.460281
-0.176347 0.562369 1.456828
-0.168534 0.562972 1.458391
-0.160621 0.563286 1.459205
-0.153544 0.566720 1.468099
-0.146174 0.569388 1.475011
-0.138923 0.572865 1.484018
-0.131950 0.577987 1.497287
-0.124493 0.581531 1.506468
-0.117185 0.586325 1.518888
-0.110297 0.594116 1.539071
-0.017865 0.609954 1.580100
-0.008887 0.589520 1.527165
-0.000502 0.583415 1.511349
0.007700 0.576567 1.493609
0.015763 0.571758 1.481152
0.023717 0.567609 1.470403
0.031577 0.563890 1.460770
0.039444 0.561778 1.455298
0.047562 0.563346 1.459359
0.055713 0.564801 1.463129
0.064164 0.568548 1.472836
0.072484 0.570426 1.477701
0.081098 0.574001 1.486963
0.091153 0.586194 1.518549
0.102996 0.606883 1.572143
-0.225107 0.593544 1.516038
-0.212294 0.581237 1.484603
-0.202346 0.576106 1.471499
-0.194082 0.575544 1.470063
-0.185418 0.573697 1.465346
-0.176884 0.572101 1.461269
-0.169010 0.572587 1.462511
-0.161269 0.573600 1.465098
-0.154041 0.576633 1.472845
-0.146944 0.580527 1.482790
-0.139743 0.584436 1.492776
-0.132447 0.588412 1.502930
-0.124776 0.591139 1.509896
-0.117132 0.594392 1.518205
-0.111031 0.606573 1.549317
-0.008919 0.600078 1.532727
-0.000504 0.594562 1.518639
0.007776 0.590533 1.508349
0.015883 0.584323 1.492486
0.023871 0.579421 1.479967
0.031756 0.575151 1.469058
0.039643 0.572647 1.462664
0.047714 0.573180 1.464026
0.055913 0.574893 1.468400
0.064194 0.576903 1.473534
0.072397 0.577834 1.475913
0.080835 0.580272 1.482140
0.090787 0.592138 1.512447
0.103746 0.619988 1.583582
-0.223122 0.596554 1.502668
-0.211793 0.587994 1.481105
-0.202517 0.584674 1.472743
-0.193963 0.583253 1.469163
-0.185583 0.582254 1.466646
-0.177339 0.581611 1.465026
-0.169189 0.581228 1.464061
-0.161971 0.584168 1.471469
-0.154134 0.585070 1.473740
-0.147227 0.589795 1.485641
-0.140298 0.594979 1.498699
-0.132753 0.598039 1.506406
-0.124994 0.600471 1.512533
-0.117862 0.606482 1.527673
-0.112573 0.623615 1.570831
-0.008954 0.610891 1.538780
-0.000504 0.603067 1.519073
0.007797 0.600447 1.512472
0.016006 0.597075 1.503978
0.024021 0.591227 1.489248
0.031915 0.586142 1.476440
0.039852 0.583723 1.470345
0.047933 0.583881 1.470745
0.056037 0.584241 1.471650
0.064008 0.583292 1.469261
0.072249 0.584735 1.472895
0.080823 0.588321 1.481929
0.090626 0.599378 1.509779
-0.222122 0.602089 1.495934
-0.211699 0.595854 1.480442
-0.202347 0.592259 1.471510
-0.193836 0.590929 1.468206
-0.185739 0.590797 1.467878
-0.178016 0.591900 1.470618
-0.170154 0.592622 1.472411
-0.162208 0.593109 1.473622
-0.154809 0.595754 1.480193
-0.148368 0.602582 1.497158
-0.140651 0.604724 1.502479
-0.132942 0.607167 1.508549
-0.125215 0.609849 1.515213
-0.118545 0.618427 1.536525
-0.115078 0.646302 1.605783
-0.008924 0.617262 1.533630
-0.000505 0.611997 1.520550
0.007798 0.608786 1.512573
0.016056 0.607234 1.508715
0.024206 0.604036 1.500770
0.032142 0.598462 1.486922
0.040092 0.595365 1.479227
0.047991 0.592669 1.472527
0.056023 0.592170 1.471289
0.064040 0.591648 1.469990
0.072165 0.592131 1.471192
0.080893 0.596968 1.483210
0.090991 0.610106 1.515852
0.102937 0.632400 1.571243
-0.222755 0.612036 1.500194
-0.211758 0.604147 1.480857
-0.202718 0.601434 1.474207
-0.193813 0.598914 1.468030
-0.185649 0.598564 1.467173
-0.178234 0.600705 1.472420
-0.171574 0.605715 1.484700
-0.163767 0.606976 1.487791
-0.156501 0.610474 1.496366
-0.148855 0.612802 1.502073
-0.140928 0.614174 1.505434
-0.132752 0.614564 1.506392
-0.125189 0.618033 1.514893
-0.118712 0.627741 1.538689
-0.008935 0.626442 1.535507
-0.000506 0.621391 1.523126
0.007806 0.617759 1.514222
0.016080 0.616427 1.510957
0.024289 0.614363 1.505897
0.032439 0.612232 1.500675
0.040295 0.606538 1.486719
0.048116 0.602318 1.476375
0.056021 0.600213 1.471214
0.064020 0.599523 1.469524
0.072460 0.602658 1.477208
0.081094 0.606613 1.486903
0.091598 0.622553 1.525974
-0.223725 0.622970 1.506729
-0.212391 0.614102 1.485281
-0.202384 0.608519 1.471778
-0.194051 0.607715 1.469834
-0.186040 0.607892 1.470261
-0.178409 0.609383 1.473868
-0.171684 0.614254 1.485649
-0.164759 0.618864 1.496800
-0.157027 0.620766 1.501400
-0.148885 0.621168 1.502372
-0.140979 0.622659 1.505979
-0.133211 0.624985 1.511605
-0.125750 0.629154 1.521687
-0.119680 0.641370 1.551233
-0.009022 0.641001 1.550339
-0.000508 0.632495 1.529769
0.007820 0.627214 1.516994
0.016122 0.626358 1.514925
0.024309 0.623127 1.507109
0.032498 0.621592 1.503398
0.040487 0.617626 1.493805
0.048255 0.612179 1.480632
0.056173 0.609945 1.475228
0.064220 0.609492 1.474132
0.072624 0.612143 1.480543
0.081163 0.615289 1.488154
0.091312 0.628954 1.521203
0.106883 0.674544 1.631467
-0.226090 0.637909 1.522655
-0.212990 0.624007 1.489472
-0.203040 0.618592 1.476546
-0.194329 0.616661 1.471937
-0.186721 0.618213 1.475642
-0.179450 0.621071 1.482463
-0.172619 0.625798 1.493747
-0.164770 0.627117 1.496895
-0.156991 0.628860 1.501056
-0.149039 0.630064 1.503929
-0.141376 0.632699 1.510218
-0.133625 0.635244 1.516294
-0.126591 0.641766 1.531861
-0.000510 0.643168 1.535207
0.007858 0.638636 1.524390
0.016152 0.635825 1.517681
0.024385 0.633391 1.511870
0.032562 0.631073 1.506338
0.040604 0.627617 1.498088
0.048449 0.622799 1.486588
0.056385 0.620363 1.480773
0.064515 0.620413 1.480892
0.072859 0.622280 1.485350
0.081481 0.625902 1.493995
0.091093 0.635770 1.517550
0.103901 0.664428 1.585954
-0.223589 0.639115 1.505811
-0.213242 0.632930 1.491238
-0.203770 0.628950 1.481861
-0.194982 0.626838 1.476885
-0.187164 0.627796 1.479142
-0.179553 0.629566 1.483313
-0.172635 0.634054 1.493886
-0.164768 0.635326 1.496884
-0.156874 0.636621 1.499935
-0.149181 0.638921 1.505354
-0.141946 0.643570 1.516306
-0.134026 0.645500 1.520854
-0.126758 0.651030 1.533884
-0.000513 0.656071 1.545760
0.007878 0.648574 1.528096
0.016178 0.645198 1.520144
0.024444 0.643231 1.515510
0.032627 0.640624 1.509366
0.040627 0.636202 1.498947
0.048618 0.633157 1.491774
0.056553 0.630362 1.485189
0.064671 0.630057 1.484468
0.073026 0.631868 1.488737
0.081482 0.634103 1.494003
0.091119 0.644280 1.517979
0.103526 0.670702 1.580232
-0.223761 0.647877 1.506973
-0.213311 0.641320 1.491721
-0.204142 0.638243 1.484564
-0.195418 0.636361 1.480187
-0.187730 0.637836 1.483617
-0.180225 0.640091 1.488863
-0.172801 0.642867 1.495319
-0.165400 0.646007 1.502623
-0.157458 0.647251 1.505517
-0.150155 0.651408 1.515185
-0.142255 0.653308 1.519606
-0.134788 0.657562 1.529500
-0.128172 0.666801 1.550989
0.007924 0.660826 1.537093
0.016227 0.655523 1.524758
0.024476 0.652402 1.517498
0.032648 0.649324 1.510339
0.040667 0.645067 1.500437
0.048775 0.643408 1.496579
0.056577 0.638791 1.485839
0.064748 0.638967 1.486248
0.073084 0.640549 1.489929
0.081425 0.641853 1.492961
0.090743 0.649919 1.511722
0.102872 0.675081 1.570250
-0.224204 0.657443 1.509953
-0.213808 0.651016 1.495191
-0.204365 0.647096 1.486187
-0.195937 0.646195 1.484118
-0.188588 0.648927 1.490392
-0.180934 0.650813 1.494725
-0.172663 0.650553 1.494126
-0.165396 0.654237 1.502588
-0.157753 0.656741 1.508338
-0.150554 0.661474 1.519209
-0.142689 0.663665 1.524241
-0.135162 0.667799 1.533736
0.007923 0.669180 1.536908
0.016275 0.665854 1.529269
0.024523 0.661983 1.520378
0.032737 0.659403 1.514453
0.040755 0.654716 1.503688
0.048926 0.653638 1.501212
0.056933 0.651006 1.495168
0.064931 0.648948 1.490441
0.073230 0.650018 1.492898
0.081488 0.650553 1.494128
0.090869 0.659126 1.513818
0.102479 0.681082 1.564243
0.113525 0.696183 1.598927
-0.224760 0.667379 1.513696
-0.213527 0.658356 1.493230
-0.204458 0.655547 1.486860
-0.196407 0.655908 1.487678
-0.188673 0.657402 1.491066
-0.181673 0.661708 1.500833
-0.173692 0.662678 1.503033
-0.165897 0.664488 1.507139
-0.158559 0.668417 1.516050
-0.150744 0.670655 1.521127
-0.143062 0.673785 1.528226
-0.136351 0.682164 1.547229
0.008117 0.694173 1.574469
0.016307 0.675565 1.532263
0.024606 0.672590 1.525514
0.032838 0.669766 1.519110
0.041022 0.667306 1.513530
0.049079 0.663956 1.505933
0.057303 0.663497 1.504890
0.065281 0.660668 1.498475
0.073287 0.658727 1.494072
0.081659 0.660133 1.497261
0.091070 0.668909 1.517165
0.101978 0.686292 1.556593
0.112973 0.701530 1.591154
-0.240350 0.696803 1.561006
-0.225688 0.678475 1.519947
-0.214740 0.670334 1.501708
-0.205540 0.667218 1.494728
-0.196640 0.664858 1.489440
-0.189596 0.668841 1.498364
-0.182861 0.674321 1.510641
-0.174577 0.674341 1.510684
-0.166377 0.674703 1.511497
-0.158448 0.676263 1.514991
-0.150608 0.678391 1.519758
-0.143885 0.686097 1.537022
-0.137578 0.696872 1.561160
0.016381 0.687085 1.539235
0.024667 0.682648 1.529295
0.032901 0.679408 1.522036
0.041049 0.676049 1.514512
0.049262 0.674724 1.511542
0.057538 0.674508 1.511059
0.065420 0.670316 1.501669
0.073381 0.667779 1.495984
0.081889 0.670226 1.501466
0.091416 0.679812 1.522941
0.101111 0.688926 1.543359
0.111712 0.702332 1.573393
-0.237396 0.696699 1.541821
-0.225355 0.685802 1.517705
-0.214619 0.678193 1.500865
-0.206353 0.678091 1.500639
-0.198038 0.677815 1.500029
-0.190290 0.679541 1.503849
-0.182637 0.681777 1.508797
-0.174584 0.682660 1.510751
-0.166278 0.682592 1.510600
-0.158573 0.685116 1.516185
-0.151421 0.690439 1.527967
-0.144433 0.697176 1.542875
-0.139694 0.716285 1.585164
0.016530 0.701877 1.553279
0.024779 0.694199 1.536286
0.032913 0.688003 1.522575
0.041092 0.685083 1.516113
0.049337 0.684058 1.513845
0.057507 0.682429 1.510241
0.065523 0.679627 1.504039
0.073524 0.677300 1.498889
0.081943 0.678918 1.502469
0.091269 0.687055 1.520478
0.100490 0.693115 1.533889
0.111292 0.708296 1.567484
0.123403 0.729035 1.613379
-0.236731 0.703185 1.537503
-0.225602 0.694891 1.519369
-0.214714 0.686732 1.501529
-0.206376 0.686403 1.500809
-0.198490 0.687611 1.503451
-0.190718 0.689339 1.507229
-0.182361 0.689011 1.506512
-0.174574 0.690909 1.510663
-0.166845 0.693236 1.515749
-0.159779 0.698706 1.527711
-0.151953 0.701275 1.533328
-0.145954 0.713074 1.559125
-0.139461 0.723773 1.582520
0.016759 0.720227 1.574765
0.024936 0.707076 1.546011
0.033100 0.700311 1.531219
0.041279 0.696552 1.522999
0.049506 0.694727 1.519011
0.057608 0.691932 1.512898
0.065636 0.689063 1.506625
0.073632 0.686539 1.501108
0.082033 0.687913 1.504111
0.090961 0.693051 1.515346
0.099940 0.697693 1.525495
0.110312 0.710580 1.553674
-0.251350 0.729566 1.576273
-0.235995 0.709410 1.532725
-0.225660 0.703410 1.519762
-0.215807 0.698508 1.509171
-0.206882 0.696342 1.504492
-0.198871 0.697198 1.506341
-0.190540 0.696959 1.505823
-0.182629 0.698304 1.508730
-0.174869 0.700381 1.513217
-0.167524 0.704409 1.521920
-0.159851 0.707410 1.528405
-0.152763 0.713471 1.541499
-0.146622 0.724931 1.566259
-0.140363 0.737196 1.592759
0.016786 0.730055 1.577331
0.025009 0.717636 1.550497
0.033239 0.711701 1.537674
0.041368 0.706426 1.526278
0.049624 0.704750 1.522657
0.057694 0.701285 1.515170
0.065866 0.699771 1.511900
0.073990 0.698146 1.508389
0.082661 0.701498 1.515632
0.091213 0.703314 1.519554
0.099920 0.705919 1.525183
0.109574 0.714297 1.543285
0.122026 0.738403 1.595367
-0.248370 0.729465 1.557589
-0.235062 0.714980 1.526661
-0.225731 0.711972 1.520238
-0.216955 0.710550 1.517202
-0.207669 0.707276 1.510210
-0.199217 0.706690 1.508959
-0.190690 0.705777 1.507010
-0.182431 0.705814 1.507090
-0.175574 0.711540 1.519316
-0.168175 0.715527 1.527829
-0.160392 0.718218 1.533575
-0.152617 0.721242 1.540032
-0.146044 0.730631 1.560080
-0.139195 0.739728 1.579504
0.016691 0.734516 1.568375
0.024917 0.723473 1.544796
0.033330 0.722103 1.541869
0.041535 0.717700 1.532468
0.049634 0.713236 1.522937
0.057786 0.710726 1.517577
0.066076 0.710324 1.516718
0.074078 0.707265 1.510187
0.082625 0.709502 1.514963
0.091312 0.712420 1.521194
0.100026 0.715050 1.526810
0.109480 0.722143 1.541956
0.121179 0.741974 1.584301
-0.246763 0.733235 1.547508
-0.234162 0.720588 1.520818
-0.224911 0.717697 1.514715
-0.216840 0.718494 1.516397
-0.207805 0.716033 1.511203
-0.200021 0.717856 1.515051
-0.191373 0.716604 1.512408
-0.183047 0.716495 1.512179
-0.175635 0.720126 1.519843
-0.168164 0.723867 1.527737
-0.160437 0.726837 1.534005
-0.152729 0.730227 1.541160
-0.145867 0.738299 1.558196
-0.139441 0.749719 1.582299
0.016630 0.740391 1.562612
0.024928 0.732273 1.545478
0.033207 0.727863 1.536170
0.041598 0.727211 1.534795
0.049776 0.723666 1.527312
0.057755 0.718673 1.516776
0.065927 0.717028 1.513303
0.074004 0.714839 1.508682
0.082471 0.716482 1.512151
0.091199 0.719881 1.519325
0.099619 0.720483 1.520595
0.108484 0.723963 1.527941
0.120440 0.746087 1.574633
-0.246073 0.739651 1.543179
-0.234882 0.731176 1.525497
-0.225126 0.726703 1.516165
-0.216326 0.725091 1.512801
-0.207523 0.723342 1.509151
-0.199996 0.726079 1.514863
-0.192279 0.728334 1.519567
-0.183869 0.728050 1.518974
-0.175606 0.728347 1.519595
-0.168148 0.732179 1.527589
-0.160198 0.734160 1.531723
-0.152744 0.738757 1.541313
-0.145893 0.746981 1.558472
-0.139700 0.759810 1.585237
0.016613 0.748236 1.561089
0.024861 0.738766 1.541333
0.033168 0.735429 1.534369
0.041536 0.734532 1.532499
0.049900 0.733874 1.531126
0.057917 0.729031 1.521022
0.066117 0.727424 1.517668
0.074114 0.724193 1.510929
0.082622 0.726106 1.514919
0.091111 0.727513 1.517855
0.099682 0.729286 1.521553
0.108861 0.734890 1.533245
0.120412 0.754554 1.574272
0.133197 0.778798 1.624853
-0.246585 0.749677 1.546392
-0.235735 0.742232 1.531036
-0.224452 0.732822 1.511626
-0.216184 0.732913 1.511813
-0.208355 0.734557 1.515205
-0.200353 0.735701 1.517564
-0.192844 0.738836 1.524030
-0.184647 0.739500 1.525400
-0.175995 0.738316 1.522959
-0.168209 0.740829 1.528142
-0.160027 0.741772 1.530087
-0.152857 0.747767 1.542454
-0.146020 0.756189 1.559826
-0.140174 0.771117 1.590618
0.016668 0.759296 1.566234
0.024859 0.747175 1.541231
0.033182 0.744170 1.535033
0.041593 0.743964 1.534609
0.049810 0.740937 1.528365
0.057949 0.737776 1.521845
0.066232 0.737026 1.520296
0.074339 0.734708 1.515516
0.082727 0.735345 1.516831
0.090885 0.734020 1.514096
0.099510 0.736361 1.518925
0.108766 0.742655 1.531909
0.120598 0.764369 1.576699
0.133559 0.789856 1.629273
-0.247924 0.762280 1.554792
-0.234767 0.747551 1.524750
-0.224838 0.742392 1.514226
-0.216132 0.741029 1.511447
-0.208220 0.742389 1.514221
-0.199751 0.741794 1.513009
-0.192101 0.744318 1.518155
-0.183965 0.745105 1.519762
-0.176251 0.747758 1.525173
-0.168225 0.749286 1.528289
-0.159575 0.748048 1.525763
-0.152198 0.752969 1.535800
-0.145855 0.763888 1.558071
-0.139455 0.775841 1.582452
-0.135546 0.804165 1.640223
0.008201 0.779989 1.590912
0.016588 0.764182 1.558671
0.024876 0.756131 1.542250
0.033116 0.751089 1.531966
0.041594 0.752397 1.534634
0.049807 0.749278 1.528273
0.058218 0.749601 1.528932
0.066520 0.748614 1.526917
0.074741 0.747036 1.523699
0.082646 0.742939 1.515343
0.090689 0.740722 1.510820
0.099404 0.743902 1.517306
0.109150 0.753712 1.537316
0.120772 0.774139 1.578980
0.125540 0.750834 1.531446
-0.245219 0.762401 1.537827
-0.234845 0.756166 1.525252
-0.224852 0.750747 1.514321
-0.216126 0.749302 1.511406
-0.208397 0.751336 1.515509
-0.200070 0.751295 1.515425
-0.192316 0.753491 1.519855
-0.184863 0.757125 1.527186
-0.176738 0.758215 1.529384
-0.168015 0.756727 1.526382
-0.160086 0.758842 1.530648
-0.152340 0.762109 1.537238
-0.144909 0.767425 1.547961
-0.139190 0.783035 1.579449
0.016601 0.773374 1.559961
0.024865 0.764262 1.541582
0.033185 0.761093 1.535189
0.041599 0.760905 1.534811
0.049973 0.760179 1.533347
0.058210 0.757886 1.528720
0.066395 0.755564 1.524037
0.074847 0.756468 1.525861
0.082772 0.752407 1.517669
0.091069 0.752154 1.517159
0.099775 0.755035 1.522969
0.109588 0.765207 1.543488
0.120197 0.779071 1.571453
-0.247454 0.777864 1.551843
-0.234703 0.764074 1.524331
-0.224242 0.756994 1.510207
-0.215806 0.756473 1.509167
-0.207402 0.756025 1.508273
-0.200193 0.760074 1.516352
-0.192533 0.762690 1.521570
-0.185109 0.766520 1.529211
-0.176400 0.765143 1.526464
-0.167683 0.763588 1.523362
-0.159629 0.765049 1.526277
-0.152544 0.771575 1.539297
-0.144970 0.776245 1.548612
-0.138400 0.787208 1.570484
0.008234 0.800632 1.597265
0.016583 0.781086 1.558270
0.024805 0.770852 1.537853
0.033096 0.767445 1.531057
0.041669 0.770632 1.537415
0.050013 0.769214 1.534585
0.058131 0.765232 1.526642
0.066337 0.763260 1.522707
0.074498 0.761275 1.518747
0.082657 0.759670 1.515546
0.091130 0.760988 1.518175
0.100018 0.765254 1.526686
0.109559 0.773466 1.543069
0.121270 0.794726 1.585482
0.133325 0.815246 1.626419
-0.235713 0.775763 1.530892
-0.225274 0.768805 1.517161
-0.215860 0.764945 1.509544
-0.208183 0.767178 1.513951
-0.200827 0.770829 1.521156
-0.192112 0.769356 1.518248
-0.184633 0.772922 1.525285
-0.176117 0.772279 1.524017
-0.167620 0.771656 1.522788
-0.160136 0.775882 1.531126
-0.152978 0.782240 1.543674
-0.145039 0.785115 1.549347
-0.137945 0.793209 1.565321
0.016609 0.790862 1.560688
0.024898 0.782240 1.543674
0.033141 0.776899 1.533134
0.041556 0.776948 1.533231
0.049925 0.776267 1.531887
0.058168 0.774093 1.527597
0.066653 0.775295 1.529968
0.074828 0.773020 1.525480
0.082768 0.769022 1.517589
0.091106 0.769112 1.517767
0.099767 0.771689 1.522854
0.109441 0.781094 1.541412
0.122048 0.808583 1.595659
-0.233681 0.777402 1.517692
-0.224742 0.775295 1.513580
-0.216551 0.775704 1.514379
-0.209961 0.782107 1.526878
-0.200686 0.778627 1.520084
-0.192557 0.779485 1.521759
-0.184418 0.780382 1.523510
-0.176157 0.780818 1.524361
-0.168031 0.781927 1.526527
-0.159511 0.781222 1.525151
-0.152492 0.788197 1.538768
-0.144535 0.790859 1.543965
-0.139515 0.810923 1.583135
0.016605 0.799224 1.560296
0.024976 0.793170 1.548475
0.033311 0.789346 1.541010
0.041738 0.788802 1.539949
0.050139 0.788031 1.538443
0.058112 0.781722 1.526126
0.066309 0.779643 1.522068
0.074831 0.781422 1.525542
0.082810 0.777748 1.518368
0.091294 0.779043 1.520896
0.100250 0.783818 1.530219
0.109904 0.792893 1.547936
0.120703 0.808327 1.578067
-0.233406 0.784806 1.515908
-0.224821 0.783875 1.514111
-0.217090 0.785965 1.518147
-0.208730 0.785852 1.517928
-0.201080 0.788515 1.523074
-0.193230 0.790588 1.527077
-0.184657 0.789762 1.525481
-0.175637 0.786850 1.519856
-0.168191 0.791053 1.527976
-0.159413 0.789106 1.524215
-0.153234 0.800515 1.546252
-0.145735 0.805967 1.556783
-0.139792 0.821236 1.586275
0.016860 0.820181 1.584237
0.025052 0.804104 1.553183
0.033345 0.798620 1.542591
0.041650 0.795561 1.536682
0.050003 0.794308 1.534262
0.058276 0.792339 1.530458
0.066562 0.791000 1.527872
0.074821 0.789686 1.525334
0.083176 0.789552 1.525076
0.091265 0.787140 1.520417
0.100001 0.790252 1.526429
0.109612 0.799258 1.543823
-0.246511 0.808831 1.545930
-0.235167 0.799106 1.527343
-0.225490 0.794540 1.518615
-0.217059 0.794181 1.517930
-0.208200 0.792164 1.514073
-0.201044 0.796731 1.522802
-0.193561 0.800337 1.529695
-0.184959 0.799439 1.527979
-0.176052 0.797069 1.523449
-0.167553 0.796405 1.522180
-0.160440 0.802606 1.534031
-0.154391 0.815110 1.557931
-0.147371 0.823652 1.574258
-0.136455 0.810129 1.548410
0.016842 0.828008 1.582582
0.025172 0.816512 1.560610
0.033352 0.807235 1.542879
0.041473 0.800578 1.530156
0.049967 0.802158 1.533175
0.058258 0.800483 1.529974
0.066693 0.800955 1.530877
0.074837 0.798224 1.525656
0.083001 0.796234 1.521853
0.091307 0.795849 1.521117
0.100158 0.799880 1.528821
0.109267 0.805187 1.538964
0.119730 0.818995 1.565356
