# .PCD v0.7 - Point Cloud Data file format
VERSION 0.7
FIELDS x y z
SIZE 4 4 4
TYPE F F F
COUNT 1 1 1
WIDTH 1731
HEIGHT 1
VIEWPOINT 0 0 0 1 0 0 0
POINTS 1731
DATA ascii
-0.357045 0.190213 2.596503
-0.269590 0.224105 3.059154
-0.252168 0.223542 3.051458
-0.237485 0.225498 3.078159
-0.180337 0.199631 2.725061
-0.162572 0.196236 2.678720
-0.146506 0.194421 2.653949
-0.131390 0.193606 2.642820
-0.116335 0.192688 2.630292
-0.101067 0.191109 2.608730
-0.086446 0.190433 2.599509
-0.071910 0.189716 2.589717
-0.057558 0.189248 2.583326
-0.043359 0.189145 2.581929
-0.029196 0.189174 2.582318
-0.015041 0.189352 2.584755
-0.000858 0.189357 2.584820
0.013349 0.189690 2.589372
0.027634 0.190220 2.596606
0.042076 0.191102 2.608634
0.056653 0.191994 2.620816
0.071274 0.192645 2.629698
0.086248 0.193868 2.646397
0.101431 0.195142 2.663783
0.117772 0.198042 2.703374
0.276383 0.185056 2.526115
0.289802 0.184775 2.522269
-0.373428 0.198038 2.514940
-0.358776 0.197568 2.508981
-0.401903 0.239714 3.044201
-0.347324 0.236670 3.005541
-0.271447 0.242550 3.080223
-0.252588 0.240685 3.056537
-0.180110 0.214313 2.721632
-0.162084 0.210301 2.670679
-0.146364 0.208781 2.651370
-0.131227 0.207848 2.639533
-0.116159 0.206808 2.626315
-0.101413 0.206126 2.617664
-0.086788 0.205508 2.609813
-0.072059 0.204348 2.595082
-0.057676 0.203842 2.588657
-0.043484 0.203900 2.589389
-0.029210 0.203441 2.583566
-0.015042 0.203555 2.585011
-0.000859 0.203827 2.588464
0.013392 0.204569 2.597888
0.027764 0.205431 2.608830
0.042113 0.205597 2.610938
0.056650 0.206366 2.620700
0.071329 0.207233 2.631712
0.086215 0.208311 2.645402
0.101259 0.209402 2.659256
0.117445 0.212285 2.695873
0.274267 0.197395 2.506780
0.289042 0.198094 2.515656
-0.512934 0.253503 3.009601
-0.494362 0.252453 2.997127
-0.477238 0.252094 2.992870
-0.371449 0.210715 2.501611
-0.356364 0.209914 2.492110
-0.348606 0.213538 2.535135
-0.394860 0.251924 2.990852
-0.378533 0.251980 2.991518
-0.361864 0.251803 2.989417
-0.344414 0.251040 2.980360
-0.328809 0.251613 2.987159
-0.263725 0.252071 2.992597
-0.247143 0.251906 2.990641
-0.230980 0.252176 2.993846
-0.179569 0.228559 2.713460
-0.161549 0.224213 2.661862
-0.146076 0.222890 2.646159
-0.131136 0.222178 2.637701
-0.116267 0.221425 2.628762
-0.101632 0.220967 2.623326
-0.086756 0.219747 2.608840
-0.072147 0.218853 2.598233
-0.057790 0.218477 2.593768
-0.043528 0.218327 2.591988
-0.029296 0.218258 2.591171
-0.015081 0.218299 2.591653
-0.000862 0.218679 2.596165
0.013413 0.219158 2.601855
0.027818 0.220173 2.613898
0.042165 0.220195 2.614159
0.056687 0.220890 2.622415
0.071526 0.222285 2.638974
0.086061 0.222427 2.640667
0.101111 0.223667 2.655385
0.117875 0.227908 2.705730
0.273075 0.210232 2.495880
0.287443 0.210725 2.501740
-0.514499 0.270841 3.018785
-0.498089 0.270926 3.019724
-0.481306 0.270805 3.018384
-0.371559 0.224508 2.502352
-0.354854 0.222642 2.481552
-0.343614 0.224192 2.498836
-0.393861 0.267656 2.983286
-0.379684 0.269211 3.000611
-0.363757 0.269610 3.005056
-0.347643 0.269901 3.008301
-0.331921 0.270540 3.015428
-0.265790 0.270595 3.016034
-0.249171 0.270518 3.015185
-0.232321 0.270164 3.011234
-0.214288 0.268273 2.990155
-0.178240 0.241646 2.693370
-0.161113 0.238174 2.654674
-0.145663 0.236738 2.638674
-0.130928 0.236276 2.633518
-0.116092 0.235493 2.624792
-0.101568 0.235213 2.621673
-0.086768 0.234094 2.609205
-0.072245 0.233427 2.601765
-0.057958 0.233386 2.601311
-0.043606 0.232965 2.596617
-0.029368 0.233045 2.597511
-0.015127 0.233233 2.599607
-0.000864 0.233572 2.603377
0.013422 0.233589 2.603569
0.027801 0.234373 2.612309
0.042201 0.234740 2.616403
0.056761 0.235587 2.625839
0.071307 0.236041 2.630899
0.085880 0.236417 2.635097
0.100842 0.237603 2.648317
0.116861 0.240666 2.682453
0.257308 0.222139 2.475948
0.270010 0.221414 2.467871
0.284808 0.222395 2.478807
-0.514723 0.287531 3.020100
-0.497707 0.287275 3.017407
-0.481198 0.287303 3.017704
-0.371323 0.238087 2.500761
-0.353940 0.235649 2.475160
-0.339966 0.235378 2.472303
-0.331808 0.239277 2.513264
-0.381802 0.287269 3.017349
-0.364757 0.286885 3.013316
-0.348728 0.287301 3.017689
-0.332540 0.287622 3.021055
-0.266105 0.287483 3.019600
-0.249530 0.287477 3.019535
-0.232579 0.287005 3.014576
-0.177247 0.254995 2.678361
-0.160730 0.252140 2.648366
-0.145306 0.250601 2.632204
-0.130583 0.250066 2.626588
-0.116027 0.249757 2.623337
-0.101456 0.249323 2.618785
-0.086909 0.248813 2.613427
-0.072368 0.248126 2.606207
-0.057951 0.247627 2.600961
-0.043657 0.247503 2.599664
-0.029422 0.247752 2.602274
-0.015137 0.247662 2.601331
-0.000865 0.248048 2.605388
0.013436 0.248143 2.606390
0.027783 0.248549 2.610649
0.042242 0.249337 2.618928
0.056742 0.249909 2.624937
0.071199 0.250098 2.626921
0.085697 0.250343 2.629495
0.100545 0.251392 2.640509
0.116085 0.253689 2.664638
0.242911 0.234939 2.467701
0.255908 0.234442 2.462476
0.269646 0.234639 2.464545
0.285439 0.236519 2.484292
-0.512819 0.302978 3.008927
-0.495783 0.302657 3.005741
-0.478892 0.302406 3.003247
-0.368493 0.249890 2.481703
-0.352442 0.248176 2.464683
-0.338087 0.247568 2.458643
-0.328464 0.250517 2.487935
-0.363772 0.302600 3.005178
-0.347776 0.303030 3.009451
-0.331339 0.303100 3.010139
-0.314632 0.302917 3.008323
-0.281602 0.302899 3.008150
-0.265079 0.302881 3.007965
-0.248497 0.302787 3.007031
-0.231931 0.302700 3.006170
-0.176486 0.268535 2.666867
-0.160493 0.266279 2.644467
-0.145090 0.264650 2.628287
-0.130360 0.264026 2.622094
-0.115771 0.263568 2.617544
-0.101373 0.263477 2.616637
-0.086816 0.262874 2.610646
-0.072494 0.262885 2.610760
-0.058104 0.262594 2.607871
-0.043695 0.261995 2.601918
-0.029359 0.261468 2.596687
-0.015148 0.262117 2.603129
-0.000866 0.262614 2.608068
0.013453 0.262763 2.609550
0.027812 0.263146 2.613355
0.042127 0.262991 2.611812
0.056607 0.263686 2.618713
0.071105 0.264162 2.623441
0.085538 0.264279 2.624607
0.100355 0.265378 2.635519
0.115734 0.267500 2.656596
0.243038 0.248610 2.468992
0.255308 0.247372 2.456701
0.269693 0.248205 2.464973
0.285513 0.250215 2.484937
-0.512022 0.318991 3.004251
-0.495680 0.319083 3.005118
-0.478816 0.318834 3.002768
-0.366357 0.261980 2.467316
-0.350218 0.260049 2.449134
-0.336478 0.259816 2.446939
-0.324277 0.260802 2.456223
-0.364007 0.319296 3.007122
-0.347231 0.319043 3.004735
-0.330882 0.319176 3.005993
-0.314513 0.319303 3.007188
-0.281352 0.319123 3.005487
-0.264995 0.319285 3.007015
-0.248479 0.319263 3.006808
-0.231688 0.318861 3.003028
-0.194222 0.287764 2.710157
-0.175315 0.281289 2.649170
-0.159957 0.279852 2.635637
-0.144868 0.278646 2.624280
-0.130053 0.277758 2.615915
-0.115698 0.277755 2.615889
-0.101248 0.277492 2.613408
-0.086880 0.277402 2.612564
-0.072693 0.277972 2.617929
-0.058059 0.276687 2.605833
-0.043711 0.276375 2.602890
-0.029405 0.276148 2.600750
-0.015135 0.276169 2.600956
-0.000865 0.276536 2.604407
0.013441 0.276841 2.607279
0.027787 0.277242 2.611053
0.042171 0.277610 2.614526
0.056633 0.278182 2.619909
0.071025 0.278244 2.620493
0.085579 0.278814 2.625859
0.100140 0.279241 2.629887
0.115418 0.281305 2.649327
0.131702 0.285087 2.684941
0.241868 0.260896 2.457113
0.255392 0.260938 2.457511
0.269506 0.261549 2.463265
0.285836 0.264149 2.487751
-0.511417 0.335080 3.000704
-0.495574 0.335501 3.004473
-0.479056 0.335478 3.004270
-0.364732 0.274296 2.456374
-0.349758 0.273128 2.445917
-0.337147 0.273786 2.451802
-0.324262 0.274266 2.456105
-0.364196 0.335971 3.008683
-0.347153 0.335455 3.004059
-0.330701 0.335487 3.004346
-0.314141 0.335407 3.003634
-0.281493 0.335782 3.006989
-0.264902 0.335667 3.005959
-0.248323 0.335551 3.004923
-0.231552 0.335143 3.001266
-0.192876 0.300539 2.691379
-0.175023 0.295332 2.644753
-0.159698 0.293837 2.631368
-0.144579 0.292461 2.619046
-0.129859 0.291675 2.612009
-0.115511 0.291637 2.611665
-0.101255 0.291853 2.613599
-0.086998 0.292133 2.616109
-0.072482 0.291488 2.610328
-0.057982 0.290599 2.602373
-0.043634 0.290146 2.598310
-0.029414 0.290511 2.601578
-0.015149 0.290714 2.603400
-0.000864 0.290649 2.602816
0.013412 0.290516 2.601628
0.027744 0.291115 2.606985
0.042130 0.291679 2.612037
0.056638 0.292583 2.620140
0.071057 0.292756 2.621681
0.085499 0.292949 2.623410
0.100034 0.293361 2.627102
0.115138 0.295127 2.642914
0.130904 0.298003 2.668672
0.241464 0.273920 2.453008
0.254608 0.273581 2.449967
0.267978 0.273506 2.449296
0.285385 0.277361 2.483822
-0.511072 0.351308 2.998679
-0.495375 0.351846 3.003270
-0.478306 0.351412 2.999571
-0.364453 0.287554 2.454490
-0.349537 0.286368 2.444369
-0.326324 0.289573 2.471729
-0.312447 0.289282 2.469240
-0.363951 0.352243 3.006658
-0.346804 0.351585 3.001041
-0.330498 0.351755 3.002498
-0.313978 0.351705 3.002070
-0.281107 0.351799 3.002869
-0.264773 0.351989 3.004489
-0.248288 0.351990 3.004503
-0.230874 0.350581 2.992472
-0.191329 0.312777 2.669786
-0.174114 0.308235 2.631022
-0.159115 0.307151 2.621764
-0.144482 0.306625 2.617275
-0.129992 0.306323 2.614701
-0.115473 0.305867 2.610803
-0.101223 0.306097 2.612773
-0.087049 0.306668 2.617640
-0.072422 0.305556 2.608156
-0.057949 0.304706 2.600900
-0.043628 0.304362 2.597963
-0.029423 0.304876 2.602350
-0.015105 0.304113 2.595832
-0.000864 0.304828 2.601936
0.013473 0.306188 2.613549
0.027829 0.306349 2.614918
0.042157 0.306206 2.613701
0.056584 0.306666 2.617631
0.070934 0.306611 2.617161
0.085218 0.306334 2.614789
0.100002 0.307677 2.626254
0.114974 0.309186 2.639136
0.130799 0.312396 2.666536
0.228516 0.288025 2.458508
0.241399 0.287303 2.452348
0.254606 0.287022 2.449948
0.267230 0.286144 2.442459
0.284043 0.289622 2.472142
-0.510969 0.367687 2.998071
-0.494999 0.368045 3.000987
-0.478095 0.367709 2.998244
-0.364742 0.301261 2.456438
-0.348581 0.298961 2.437683
-0.340728 0.303887 2.477849
-0.325002 0.301908 2.461716
-0.310955 0.301385 2.457454
-0.347281 0.368558 3.005168
-0.330140 0.367831 2.999245
-0.313641 0.367783 2.998847
-0.280890 0.367991 3.000547
-0.264601 0.368235 3.002537
-0.248096 0.368191 3.002177
-0.191161 0.327140 2.667453
-0.174157 0.322751 2.631668
-0.158999 0.321302 2.619851
-0.144359 0.320713 2.615046
-0.130042 0.320794 2.615706
-0.115595 0.320531 2.613562
-0.101384 0.320944 2.616931
-0.087001 0.320854 2.616194
-0.072389 0.319720 2.606953
-0.057998 0.319246 2.603086
-0.043667 0.318898 2.600247
-0.029398 0.318890 2.600181
-0.015096 0.318159 2.594220
-0.000863 0.318994 2.601029
0.013453 0.320045 2.609599
0.027856 0.321012 2.617488
0.042177 0.320698 2.614923
0.056532 0.320734 2.615220
0.070873 0.320695 2.614899
0.085174 0.320517 2.613447
0.099748 0.321270 2.619589
0.114954 0.323611 2.638680
0.130871 0.327207 2.668003
0.227190 0.299765 2.444243
0.240819 0.300037 2.446456
0.254331 0.300140 2.447300
0.267510 0.299860 2.445019
0.283496 0.302603 2.467382
-0.510760 0.383981 2.996845
-0.494259 0.383937 2.996504
-0.478111 0.384174 2.998348
-0.460479 0.383192 2.990684
-0.349771 0.313403 2.446005
-0.337358 0.314342 2.453338
-0.324691 0.315114 2.459358
-0.311657 0.315580 2.463001
-0.346952 0.384683 3.002321
-0.329962 0.384081 2.997628
-0.313688 0.384295 2.999296
-0.281101 0.384745 3.002805
-0.264519 0.384591 3.001605
-0.247804 0.384212 2.998651
-0.190123 0.339920 2.652965
-0.173323 0.335578 2.619073
-0.158599 0.334833 2.613258
-0.144313 0.334955 2.614211
-0.129797 0.334514 2.610770
-0.115442 0.334427 2.610094
-0.101304 0.335038 2.614864
-0.087138 0.335739 2.620334
-0.072712 0.335519 2.618613
-0.057983 0.333443 2.602415
-0.043588 0.332563 2.595540
-0.029377 0.332915 2.598291
-0.015096 0.332389 2.594183
-0.000866 0.334071 2.607310
0.013481 0.335052 2.614969
0.027894 0.335838 2.621106
0.042179 0.335060 2.615030
0.056395 0.334273 2.608891
0.070818 0.334783 2.612868
0.085032 0.334300 2.609098
0.099415 0.334522 2.610830
0.114265 0.336063 2.622861
0.130305 0.340369 2.656471
0.226847 0.312704 2.440552
0.242565 0.315732 2.464186
0.255600 0.315133 2.459507
0.268666 0.314631 2.455587
-0.510616 0.400313 2.996006
-0.494278 0.400395 2.996620
-0.477882 0.400434 2.996910
-0.461334 0.400344 2.996240
-0.352532 0.329404 2.465309
-0.338042 0.328469 2.458311
-0.378575 0.399757 2.991848
-0.362590 0.400233 2.995409
-0.346525 0.400663 2.998627
-0.330117 0.400718 2.999037
-0.313804 0.400901 3.000411
-0.280880 0.400906 3.000446
-0.264379 0.400849 3.000016
-0.247437 0.400072 2.994202
-0.188744 0.351906 2.633721
-0.172860 0.349014 2.612074
-0.158427 0.348792 2.610413
-0.143991 0.348521 2.608388
-0.129617 0.348356 2.607151
-0.115363 0.348513 2.608326
-0.101289 0.349333 2.614462
-0.087074 0.349858 2.618389
-0.072817 0.350390 2.622371
-0.058278 0.349490 2.615642
-0.043647 0.347273 2.599047
-0.029314 0.346429 2.592731
-0.015133 0.347467 2.600496
-0.000868 0.349411 2.615051
0.013520 0.350428 2.622657
0.027898 0.350271 2.621482
0.042168 0.349319 2.614360
0.056504 0.349260 2.613915
0.070939 0.349714 2.617314
0.084960 0.348321 2.606889
0.099196 0.348079 2.605081
0.114121 0.350014 2.619562
0.129928 0.353919 2.648784
0.227653 0.327254 2.449224
0.241909 0.328364 2.457526
0.254684 0.327452 2.450701
0.269326 0.328911 2.461620
-0.509987 0.416239 2.992314
-0.493899 0.416518 2.994318
-0.477907 0.416900 2.997066
-0.461373 0.416820 2.996493
-0.444712 0.416615 2.995019
-0.426667 0.415048 2.983753
-0.411777 0.416547 2.994532
-0.395479 0.416687 2.995537
-0.379064 0.416712 2.995715
-0.362819 0.416933 2.997307
-0.346441 0.417015 2.997897
-0.330123 0.417183 2.999098
-0.313694 0.417218 2.999357
-0.297164 0.417117 2.998626
-0.280793 0.417241 2.999517
-0.264572 0.417616 3.002215
-0.247696 0.416937 2.997333
-0.206429 0.372187 2.675628
-0.188305 0.365506 2.627597
-0.172722 0.363056 2.609987
-0.158229 0.362662 2.607152
-0.143745 0.362214 2.603936
-0.129590 0.362587 2.606614
-0.115350 0.362783 2.608026
-0.101392 0.364049 2.617122
-0.087063 0.364182 2.618080
-0.072774 0.364563 2.620819
-0.058112 0.362809 2.608209
-0.043771 0.362564 2.606449
-0.029175 0.358944 2.580423
-0.015106 0.361103 2.595942
-0.000870 0.364474 2.620183
0.013499 0.364247 2.618546
0.027837 0.363847 2.615673
0.042132 0.363356 2.612140
0.056417 0.363046 2.609913
0.070746 0.363088 2.610215
0.084940 0.362538 2.606262
0.099180 0.362316 2.604665
0.114176 0.364563 2.620821
0.129688 0.367772 2.643892
0.241241 0.340905 2.450741
0.254884 0.341166 2.452618
-0.510072 0.432730 2.992813
-0.493984 0.433023 2.994838
-0.477583 0.433052 2.995038
-0.460336 0.432288 2.989754
-0.444758 0.433093 2.995323
-0.428304 0.433075 2.995201
-0.411911 0.433119 2.995501
-0.395298 0.432926 2.994170
-0.378640 0.432664 2.992358
-0.362573 0.433086 2.995275
-0.346103 0.433042 2.994969
-0.329906 0.433353 2.997123
-0.313563 0.433495 2.998105
-0.297103 0.433482 2.998011
-0.280701 0.433556 2.998526
-0.264604 0.434142 3.002575
-0.247575 0.433173 2.995874
-0.206349 0.386718 2.674589
-0.187907 0.379121 2.622046
-0.172786 0.377517 2.610950
-0.158123 0.376716 2.605413
-0.143561 0.376020 2.600602
-0.129619 0.376974 2.607194
-0.115371 0.377162 2.608494
-0.101285 0.378008 2.614351
-0.086954 0.378070 2.614779
-0.072680 0.378457 2.617455
-0.058117 0.377152 2.608428
-0.043638 0.375719 2.598515
-0.029158 0.372884 2.578912
-0.015033 0.373520 2.583310
-0.000869 0.378319 2.616497
0.013483 0.378180 2.615535
0.027822 0.378003 2.614311
0.042192 0.378227 2.615865
0.056366 0.377024 2.607543
0.070490 0.376042 2.600751
0.084923 0.376765 2.605752
0.099136 0.376441 2.603513
0.113831 0.377801 2.612914
0.129376 0.381360 2.637528
-0.493856 0.449339 2.994057
-0.477442 0.449353 2.994153
-0.460921 0.449263 2.993554
-0.444764 0.449535 2.995366
-0.428178 0.449378 2.994319
-0.411849 0.449488 2.995052
-0.395398 0.449469 2.994922
-0.378751 0.449216 2.993238
-0.362433 0.449347 2.994114
-0.345992 0.449332 2.994010
-0.329774 0.449619 2.995921
-0.297047 0.449848 2.997449
-0.280571 0.449802 2.997146
-0.264322 0.450137 2.999378
-0.246817 0.448235 2.986704
-0.205722 0.400176 2.666470
-0.187877 0.393445 2.621620
-0.172630 0.391490 2.608599
-0.157927 0.390529 2.602190
-0.143405 0.389865 2.597767
-0.129605 0.391235 2.606899
-0.115413 0.391619 2.609453
-0.101262 0.392268 2.613780
-0.087057 0.392883 2.617880
-0.072906 0.394037 2.625567
-0.058334 0.392927 2.618173
-0.043802 0.391447 2.608307
-0.029234 0.388052 2.585691
-0.015019 0.387334 2.580907
-0.000868 0.392252 2.613676
0.013477 0.392333 2.614212
0.027796 0.391984 2.611886
0.042185 0.392511 2.615398
0.056423 0.391726 2.610166
0.070450 0.390095 2.599302
0.084743 0.390231 2.600208
0.098916 0.389858 2.597722
0.113496 0.390984 2.605222
0.128806 0.394088 2.625904
0.146274 0.402506 2.682000
-0.297366 0.466796 3.000666
-0.280786 0.466605 2.999442
-0.264359 0.466659 2.999787
-0.203990 0.411313 2.644014
-0.187740 0.407533 2.619716
-0.172381 0.405219 2.604836
-0.157636 0.404060 2.597388
-0.143273 0.403749 2.595386
-0.129124 0.404036 2.597233
-0.115112 0.404878 2.602644
-0.101210 0.406399 2.612425
-0.087061 0.407269 2.618014
-0.072924 0.408547 2.626228
-0.058666 0.409612 2.633078
-0.044275 0.410141 2.636477
-0.029245 0.402385 2.586623
-0.015035 0.401936 2.583733
-0.000870 0.407728 2.620969
0.013490 0.407075 2.616771
0.027811 0.406528 2.613255
0.042163 0.406648 2.614027
0.056364 0.405626 2.607457
0.070544 0.404895 2.602757
0.084722 0.404403 2.599592
0.099076 0.404767 2.601930
0.113682 0.405942 2.609483
0.128881 0.408734 2.627436
0.145332 0.414534 2.664719
-0.297839 0.484030 3.005441
-0.281000 0.483431 3.001725
-0.264478 0.483337 3.001143
-0.203226 0.424227 2.634114
-0.186928 0.420083 2.608381
-0.172027 0.418651 2.599489
-0.157363 0.417587 2.592885
-0.143141 0.417604 2.592989
-0.129127 0.418298 2.597303
-0.115026 0.418847 2.600709
-0.101130 0.420402 2.610361
-0.087092 0.421782 2.618931
-0.072949 0.423105 2.627147
-0.058872 0.425545 2.642299
-0.044620 0.427918 2.657031
-0.029521 0.420517 2.611076
-0.015158 0.419518 2.604873
-0.000874 0.424115 2.633417
0.013514 0.422189 2.621461
0.027795 0.420621 2.611727
0.042072 0.420086 2.608401
0.056291 0.419387 2.604063
0.070450 0.418616 2.599277
0.084559 0.417862 2.594590
0.098876 0.418199 2.596686
0.113247 0.418653 2.599506
0.128590 0.422197 2.621507
0.145024 0.428249 2.659090
-0.297082 0.499248 2.997797
-0.280674 0.499321 2.998237
-0.264160 0.499203 2.997530
-0.202768 0.437691 2.628172
-0.186746 0.433971 2.605836
-0.171831 0.432421 2.596530
-0.157459 0.432079 2.594473
-0.143145 0.431843 2.593054
-0.129059 0.432322 2.595934
-0.114919 0.432711 2.598269
-0.101325 0.435563 2.615393
-0.087250 0.436948 2.623707
-0.073198 0.439011 2.636097
-0.059068 0.441514 2.651125
-0.044903 0.445302 2.673873
-0.030176 0.444482 2.668946
-0.015411 0.441047 2.648321
-0.000877 0.439785 2.640745
0.013544 0.437527 2.627188
0.027861 0.435984 2.617919
0.042118 0.434870 2.611234
0.056305 0.433790 2.604747
0.070361 0.432333 2.596001
0.084353 0.431046 2.588269
0.098720 0.431766 2.592595
0.113328 0.433226 2.601358
0.128654 0.436797 2.622803
0.145134 0.443175 2.661102
-0.297239 0.515971 2.999389
-0.280852 0.516100 3.000139
-0.264138 0.515609 2.997286
-0.202589 0.451714 2.625856
-0.186711 0.448187 2.605354
-0.171596 0.446057 2.592972
-0.157162 0.445472 2.589570
-0.143292 0.446531 2.595731
-0.129210 0.447089 2.598971
-0.115089 0.447630 2.602117
-0.101194 0.449333 2.612014
-0.087237 0.451276 2.623310
-0.073199 0.453481 2.636131
-0.059092 0.456242 2.652178
-0.044939 0.460341 2.676009
-0.030451 0.463314 2.693287
-0.015536 0.459290 2.669899
-0.000879 0.455689 2.648962
0.013564 0.452618 2.631111
0.027931 0.451493 2.624574
0.042234 0.450444 2.618476
0.056292 0.447975 2.604122
0.070373 0.446652 2.596431
0.084508 0.446062 2.593001
0.098884 0.446730 2.596887
0.113327 0.447494 2.601326
0.128280 0.449879 2.615190
0.144755 0.456580 2.654145
-0.297275 0.532492 2.999744
-0.280694 0.532263 2.998455
-0.263500 0.530771 2.990050
-0.222203 0.477304 2.688846
-0.202432 0.465762 2.623828
-0.186671 0.462384 2.604796
-0.171501 0.460031 2.591543
-0.157013 0.459247 2.587125
-0.143225 0.460557 2.594507
-0.129173 0.461217 2.598222
-0.115193 0.462328 2.604481
-0.101291 0.464109 2.614514
-0.087393 0.466503 2.628002
-0.073311 0.468664 2.640174
-0.059160 0.471336 2.655229
-0.044867 0.474261 2.671706
-0.030596 0.480368 2.706110
-0.015588 0.475511 2.678746
-0.000881 0.471350 2.655305
0.013591 0.467996 2.636413
0.027997 0.466983 2.630705
0.042225 0.464710 2.617900
0.056326 0.462547 2.605717
0.070421 0.461216 2.598217
0.084579 0.460679 2.595192
0.098768 0.460440 2.593845
0.112978 0.460346 2.593318
0.127851 0.462673 2.606427
0.144724 0.471045 2.653589
-0.297168 0.548754 2.998665
-0.280554 0.548443 2.996962
-0.263297 0.546755 2.987739
-0.221090 0.489595 2.675387
-0.201820 0.478706 2.615885
-0.186401 0.475987 2.601027
-0.171625 0.474593 2.593410
-0.157202 0.474013 2.590240
-0.143290 0.475010 2.595688
-0.129189 0.475531 2.598537
-0.115204 0.476663 2.604722
-0.101307 0.478529 2.614918
-0.087278 0.480291 2.624549
-0.073354 0.483434 2.641720
-0.059199 0.486229 2.656993
-0.045067 0.491101 2.683618
-0.015650 0.492170 2.689461
-0.000885 0.487628 2.664640
0.013630 0.483840 2.643944
0.027989 0.481281 2.629956
0.042213 0.478935 2.617140
0.056415 0.477593 2.609806
0.070481 0.475880 2.600444
0.084660 0.475373 2.597676
0.098823 0.474939 2.595303
0.113258 0.475754 2.599755
0.128137 0.478044 2.612268
0.143983 0.483118 2.639997
-0.296888 0.564677 2.995848
-0.280335 0.564447 2.994625
-0.263053 0.562629 2.984978
-0.220867 0.503766 2.672685
-0.202111 0.493771 2.619662
-0.186378 0.490198 2.600704
-0.171592 0.488730 2.592918
-0.157419 0.488899 2.593815
-0.143138 0.488734 2.592938
-0.129209 0.489866 2.598941
-0.115246 0.491135 2.605677
-0.101308 0.492885 2.614960
-0.087395 0.495353 2.628052
-0.073298 0.497551 2.639717
-0.059382 0.502358 2.665217
-0.045543 0.511172 2.711978
-0.015788 0.511393 2.713154
-0.000886 0.503240 2.669896
0.013644 0.498877 2.646748
0.028005 0.495993 2.631450
0.042178 0.492885 2.614958
0.056383 0.491639 2.608348
0.070473 0.490089 2.600123
0.084678 0.489729 2.598215
0.098776 0.488943 2.594046
0.113156 0.489579 2.597420
0.128100 0.492237 2.611522
0.144281 0.498634 2.645461
-0.296808 0.580959 2.995039
-0.280128 0.580449 2.992408
-0.262936 0.578750 2.983651
-0.221594 0.520138 2.681486
-0.201924 0.507675 2.617237
-0.186329 0.504336 2.600024
-0.171535 0.502790 2.592051
-0.157106 0.502131 2.588653
-0.143117 0.502887 2.592554
-0.129266 0.504349 2.600091
-0.115450 0.506329 2.610296
-0.101397 0.507677 2.617248
-0.087538 0.510607 2.632349
-0.073530 0.513655 2.648066
-0.059515 0.518137 2.671168
-0.000888 0.518979 2.675510
0.013665 0.514167 2.650705
0.028011 0.510553 2.632073
0.042242 0.508011 2.618968
0.056336 0.505523 2.606143
0.070498 0.504538 2.601064
0.084768 0.504521 2.600975
0.098890 0.503761 2.597057
0.113292 0.504437 2.600543
0.128077 0.506473 2.611038
0.143892 0.511767 2.638333
-0.296256 0.596282 2.989470
-0.279910 0.596404 2.990081
-0.262935 0.595118 2.983631
-0.222115 0.536109 2.687792
-0.202256 0.522895 2.621540
-0.186327 0.518598 2.599996
-0.171691 0.517484 2.594414
-0.157118 0.516375 2.588852
-0.143222 0.517493 2.594460
-0.129303 0.518766 2.600841
-0.115408 0.520459 2.609329
-0.101589 0.523030 2.622218
-0.087583 0.525319 2.633697
-0.073703 0.529429 2.654300
-0.059617 0.533710 2.675763
-0.000894 0.537032 2.692418
0.013682 0.529397 2.654140
0.028018 0.525116 2.632678
0.042241 0.522369 2.618906
0.056370 0.520138 2.607720
0.070499 0.518815 2.601086
0.084619 0.517885 2.596422
0.098771 0.517387 2.593925
0.113188 0.518227 2.598140
0.128184 0.521237 2.613227
0.144431 0.528213 2.648205
-0.296353 0.612886 2.990448
-0.279998 0.613003 2.991018
-0.263030 0.611712 2.984716
-0.221962 0.550477 2.685935
-0.202656 0.538342 2.626724
-0.186667 0.533835 2.604734
-0.171976 0.532601 2.598712
-0.157235 0.530976 2.590786
-0.143180 0.531571 2.593687
-0.129262 0.532868 2.600017
-0.115506 0.535234 2.611559
-0.101874 0.538923 2.629558
-0.087819 0.541228 2.640805
-0.073944 0.545773 2.662984
-0.000902 0.556949 2.717512
0.013762 0.547121 2.669562
0.028123 0.541593 2.642589
0.042225 0.536530 2.617883
0.056312 0.533900 2.605049
0.070435 0.532607 2.598744
0.084606 0.532046 2.596006
0.098995 0.532825 2.599805
0.113447 0.533702 2.604084
0.128200 0.535643 2.613554
0.144248 0.542059 2.644859
-0.296218 0.629007 2.989080
-0.279862 0.629109 2.989563
-0.262855 0.627670 2.982723
-0.222447 0.566449 2.691799
-0.202910 0.553447 2.630014
-0.186681 0.548168 2.604927
-0.172026 0.547019 2.599468
-0.157251 0.545246 2.591043
-0.142868 0.544617 2.588052
-0.129168 0.546735 2.598115
-0.115450 0.549296 2.610288
-0.101929 0.553653 2.630993
-0.088145 0.557782 2.650613
-0.074308 0.563137 2.676058
-0.000908 0.575558 2.735088
0.013799 0.563275 2.676715
0.028150 0.556634 2.645160
0.042300 0.551873 2.622533
0.056286 0.547939 2.603838
0.070410 0.546668 2.597797
0.084608 0.546306 2.596080
0.099022 0.547238 2.600509
0.113536 0.548420 2.606126
0.128723 0.552227 2.624215
0.144761 0.558551 2.654268
-0.296339 0.645673 2.990306
-0.280021 0.645880 2.991262
-0.263059 0.644537 2.985042
-0.203495 0.569517 2.637604
-0.186823 0.562890 2.606910
-0.171710 0.560252 2.594692
-0.157193 0.559257 2.590088
-0.142864 0.558801 2.587971
-0.128973 0.560142 2.594186
-0.115422 0.563481 2.609648
-0.101977 0.568353 2.632212
-0.088579 0.575146 2.663672
-0.075075 0.583785 2.703683
0.013860 0.580537 2.688640
0.028197 0.572103 2.649578
0.042301 0.566279 2.622605
0.056261 0.561980 2.602697
0.070329 0.560280 2.594824
0.084497 0.559814 2.592666
0.099003 0.561402 2.600020
0.113577 0.562924 2.607069
0.128614 0.566146 2.621991
0.144704 0.572887 2.653212
-0.296299 0.661991 2.989897
-0.280106 0.662495 2.992174
-0.263240 0.661370 2.987090
-0.202956 0.582444 2.630619
-0.186888 0.577395 2.607815
-0.171621 0.574193 2.593354
-0.157487 0.574541 2.594925
-0.143222 0.574438 2.594462
-0.129189 0.575341 2.598540
-0.115364 0.577510 2.608336
-0.101892 0.582314 2.630034
-0.088951 0.592236 2.674847
0.013986 0.600705 2.713097
0.028166 0.585997 2.646667
0.042200 0.579291 2.616378
0.056266 0.576316 2.602943
0.070364 0.574807 2.596128
0.084502 0.574077 2.592831
0.099091 0.576179 2.602324
0.113725 0.577983 2.610475
0.128442 0.579755 2.618478
0.145290 0.589824 2.663955
-0.296599 0.679085 2.992928
-0.280046 0.678769 2.991536
-0.262970 0.677066 2.984030
-0.204024 0.600018 2.644455
-0.187076 0.592301 2.610447
-0.171812 0.589075 2.596230
-0.157318 0.588149 2.592148
-0.143001 0.587766 2.590459
-0.129180 0.589559 2.598363
-0.115566 0.592860 2.612909
-0.102363 0.599503 2.642188
-0.089144 0.608230 2.680650
0.028148 0.600121 2.644910
0.042278 0.594735 2.621174
0.056333 0.591294 2.606009
0.070282 0.588360 2.593078
0.084583 0.588866 2.595306
0.099114 0.590594 2.602923
0.114043 0.593965 2.617782
0.128895 0.596222 2.627728
0.145348 0.604684 2.665024
-0.294516 0.690623 2.971909
-0.277668 0.689279 2.966128
-0.260696 0.687443 2.958225
-0.242967 0.683235 2.940119
-0.204170 0.614967 2.646347
-0.188012 0.609659 2.623502
-0.171962 0.603849 2.598501
-0.156977 0.601066 2.586525
-0.142944 0.601737 2.589411
-0.129202 0.603920 2.598807
-0.115497 0.606836 2.611355
-0.102261 0.613388 2.639549
-0.089573 0.625934 2.693539
0.028269 0.617273 2.656268
0.042266 0.608948 2.620445
0.056366 0.605956 2.607568
0.070393 0.603543 2.597187
0.084602 0.603245 2.595903
0.099339 0.606252 2.608844
0.114486 0.610688 2.627929
0.129491 0.613461 2.639865
-0.293155 0.703664 2.958179
-0.276389 0.702306 2.952470
-0.259930 0.701607 2.949531
-0.243307 0.700347 2.944233
-0.206318 0.636113 2.674195
-0.188729 0.626435 2.633510
-0.172150 0.618783 2.601343
-0.157256 0.616354 2.591129
-0.143345 0.617676 2.596688
-0.129478 0.619499 2.604353
-0.115507 0.621218 2.611579
-0.102680 0.630446 2.650373
0.028585 0.638927 2.686028
0.042478 0.626453 2.633588
0.056375 0.620360 2.607970
0.070491 0.618653 2.600795
0.084704 0.618234 2.599036
0.099226 0.619864 2.605885
0.114579 0.625615 2.630065
0.130542 0.633045 2.661299
-0.276111 0.717783 2.949496
-0.259659 0.717043 2.946455
-0.243527 0.717149 2.946891
-0.189629 0.643941 2.646067
-0.172199 0.633236 2.602079
-0.157523 0.631641 2.595525
-0.143643 0.633237 2.602082
-0.129844 0.635583 2.611722
-0.116120 0.638920 2.625436
-0.103547 0.650437 2.672760
0.028920 0.661312 2.717447
0.042778 0.645427 2.652175
0.056629 0.637530 2.619722
0.070591 0.633827 2.604506
0.084903 0.633982 2.605144
0.099441 0.635533 2.611519
0.114553 0.639903 2.629473
0.131714 0.653464 2.685197
-0.276135 0.734031 2.949754
-0.259998 0.734168 2.950306
-0.243972 0.734658 2.952272
-0.188632 0.654998 2.632154
-0.172425 0.648366 2.605502
-0.157884 0.647362 2.601469
-0.143468 0.646725 2.598910
-0.129978 0.650582 2.614410
-0.116709 0.656642 2.638761
-0.103726 0.666253 2.677382
0.043114 0.665160 2.672990
0.056946 0.655556 2.634395
0.070753 0.649606 2.610486
0.084847 0.647844 2.603403
0.099635 0.651131 2.616612
0.115106 0.657493 2.642179
0.132489 0.672129 2.700997
-0.275938 0.749683 2.947654
-0.259907 0.750094 2.949270
-0.243986 0.750901 2.952443
-0.188034 0.667318 2.623807
-0.172791 0.664069 2.611031
-0.158654 0.664867 2.614170
-0.144144 0.664101 2.611157
-0.130862 0.669450 2.632190
-0.117678 0.676693 2.660670
-0.103977 0.682590 2.683853
0.015854 0.782189 3.075466
0.028981 0.692603 2.723223
0.043300 0.682763 2.684534
0.057302 0.674193 2.650838
0.070905 0.665347 2.616057
0.085054 0.663748 2.609769
0.099392 0.663866 2.610233
0.114622 0.669165 2.631069
0.131348 0.681033 2.677732
-0.292653 0.767273 2.953106
-0.275789 0.765442 2.946058
-0.259881 0.766201 2.948977
-0.243730 0.766298 2.949351
-0.188374 0.682950 2.628559
-0.172673 0.677931 2.609243
-0.158931 0.680396 2.618731
-0.144774 0.681395 2.622575
-0.131155 0.685425 2.638085
-0.117484 0.690153 2.656284
-0.103812 0.696211 2.679600
0.028998 0.707961 2.724824
0.043032 0.693178 2.667927
0.057472 0.690782 2.658704
0.071540 0.685793 2.639501
0.085163 0.678939 2.613121
0.099611 0.679685 2.615993
0.114638 0.683695 2.631427
0.131745 0.697826 2.685815
0.167904 0.799878 3.078597
-0.292255 0.782412 2.949091
-0.275989 0.782173 2.948190
-0.260666 0.784745 2.957886
-0.244205 0.784005 2.955095
-0.188641 0.698362 2.632288
-0.173335 0.694905 2.619257
-0.159659 0.697949 2.630729
-0.145759 0.700520 2.640420
-0.131384 0.701120 2.642684
-0.117605 0.705454 2.659019
0.043206 0.710676 2.678702
0.057403 0.704521 2.655501
0.072027 0.705043 2.657470
0.086039 0.700403 2.639981
0.099948 0.696384 2.624830
0.114820 0.699244 2.635610
0.130936 0.708189 2.669326
0.167606 0.815323 3.073139
-0.292270 0.798635 2.949243
-0.275951 0.798242 2.947790
-0.260756 0.801251 2.958904
-0.243987 0.799506 2.952458
-0.206519 0.724858 2.676793
-0.188473 0.712169 2.629935
-0.173640 0.710525 2.623864
-0.159893 0.713426 2.634578
-0.145646 0.714451 2.638363
-0.131604 0.716823 2.647123
-0.118141 0.723321 2.671119
0.043704 0.733732 2.709565
0.057627 0.721901 2.665873
0.072076 0.720113 2.659270
0.086280 0.716889 2.647367
0.100121 0.712018 2.629378
0.115056 0.715170 2.641019
0.131300 0.724848 2.676757
0.167795 0.833120 3.076589
-0.309116 0.816572 2.955589
-0.292322 0.814963 2.949767
-0.275929 0.814352 2.947554
-0.260539 0.816808 2.956444
-0.243771 0.814985 2.949847
-0.205679 0.736540 2.665913
-0.188632 0.727215 2.632162
-0.173720 0.725257 2.625075
-0.159962 0.728196 2.635715
-0.145910 0.730250 2.643147
-0.132219 0.734764 2.659484
0.057955 0.740727 2.681068
0.072199 0.735963 2.663825
0.086403 0.732460 2.651146
0.100377 0.728305 2.636109
0.115075 0.729787 2.641471
0.130954 0.737586 2.669701
-0.309103 0.832752 2.955458
-0.292520 0.831711 2.951764
-0.276146 0.831179 2.949874
-0.260326 0.832350 2.954032
-0.242276 0.826073 2.931755
-0.206380 0.753725 2.674990
-0.188759 0.742155 2.633928
-0.174694 0.743808 2.639792
-0.160082 0.743215 2.637687
-0.146106 0.745752 2.646694
-0.132912 0.753282 2.673418
-0.130741 0.832905 2.956000
-0.115664 0.841223 2.985520
0.049377 0.862583 3.061328
0.058161 0.758122 2.690593
0.072193 0.750512 2.663585
0.086567 0.748425 2.656178
0.100828 0.746107 2.647951
0.115189 0.745017 2.644085
0.130942 0.752166 2.669456
-0.308780 0.848082 2.952369
-0.292030 0.846488 2.946821
-0.275564 0.845580 2.943659
-0.259909 0.847198 2.949294
-0.205629 0.765609 2.665262
-0.189289 0.758731 2.641320
-0.174833 0.758893 2.641883
-0.160532 0.759818 2.645101
-0.146558 0.762631 2.654896
-0.133585 0.771842 2.686961
-0.131383 0.853299 2.970533
-0.115367 0.855401 2.977850
0.049657 0.884361 3.078665
0.058829 0.781756 2.721473
0.072408 0.767406 2.671517
0.086593 0.763231 2.656985
0.100894 0.761132 2.649675
0.115078 0.758793 2.641536
0.130674 0.765245 2.663996
0.147190 0.775240 2.698791
0.184469 0.882773 3.073138
-0.309121 0.865238 2.955635
-0.292459 0.863924 2.951146
-0.275794 0.862449 2.946109
-0.259291 0.861330 2.942286
-0.222862 0.789472 2.696820
-0.204774 0.776989 2.654177
-0.189661 0.774745 2.646512
-0.174906 0.773712 2.642983
-0.160602 0.774672 2.646263
-0.146988 0.779478 2.662682
-0.134767 0.793549 2.710748
-0.131418 0.869827 2.971312
-0.115418 0.872122 2.979152
0.049701 0.902047 3.081374
0.059383 0.804192 2.747102
0.072792 0.786211 2.685681
0.086757 0.779287 2.662028
0.101032 0.776729 2.653291
0.115391 0.775392 2.648722
0.130181 0.776921 2.653946
0.146549 0.786611 2.687047
0.184240 0.898521 3.069329
0.218775 0.902029 3.081312
0.235648 0.901899 3.080870
-0.311025 0.886886 2.973842
-0.294674 0.886785 2.973505
-0.277846 0.885152 2.968028
-0.260185 0.880500 2.952430
-0.221464 0.799225 2.679903
-0.203904 0.788191 2.642908
-0.189397 0.788167 2.642825
-0.174994 0.788613 2.644320
-0.161130 0.791787 2.654964
-0.147216 0.795317 2.666800
-0.134333 0.805819 2.702015
-0.131491 0.886628 2.972977
-0.115668 0.890399 2.985624
0.049676 0.918504 3.079862
0.059175 0.816396 2.737481
0.072753 0.800520 2.684247
0.087069 0.796748 2.671597
0.101350 0.793785 2.661664
0.115824 0.792886 2.658648
0.130203 0.791617 2.654394
0.145902 0.797818 2.675187
0.201835 0.918789 3.080817
0.218644 0.918388 3.079472
-0.311535 0.904682 2.978710
-0.295063 0.904293 2.977430
-0.278742 0.904345 2.977602
-0.260933 0.899277 2.960913
-0.220964 0.812095 2.673864
-0.203948 0.802866 2.643476
-0.189589 0.803485 2.645514
-0.175480 0.805351 2.651657
-0.161269 0.807048 2.657247
-0.147184 0.809778 2.666234
-0.134361 0.820814 2.702570
-0.131508 0.903054 2.973350
-0.115765 0.907539 2.988117
0.049692 0.935706 3.080857
0.058996 0.828911 2.729229
0.072716 0.814832 2.682875
0.087053 0.811257 2.671103
0.101402 0.808801 2.663017
0.115525 0.805390 2.651787
0.130136 0.805763 2.653014
0.145731 0.811545 2.672053
0.164604 0.832850 2.742201
0.201599 0.934599 3.077214
0.218647 0.935299 3.079519
0.235423 0.934813 3.077919
-0.311338 0.920445 2.976831
-0.294874 0.920041 2.975525
-0.278371 0.919458 2.973638
-0.259358 0.909997 2.943039
-0.220163 0.823767 2.664161
-0.203961 0.817423 2.643644
-0.189402 0.817193 2.642900
-0.175465 0.819833 2.651439
-0.161333 0.821955 2.658301
-0.147024 0.823511 2.663333
-0.133763 0.831924 2.690542
-0.131580 0.919872 2.974977
-0.115898 0.925000 2.991562
0.049643 0.951658 3.077775
0.058964 0.843424 2.727735
0.072713 0.829521 2.682772
0.087004 0.825445 2.669590
0.101330 0.822832 2.661139
0.115481 0.819628 2.650776
0.129970 0.819274 2.649630
0.145410 0.824385 2.666162
0.164065 0.845122 2.733225
0.201752 0.952209 3.079560
0.218537 0.951717 3.077968
0.235494 0.951989 3.078848
-0.311076 0.935990 2.974323
-0.294820 0.936194 2.974971
-0.278189 0.935162 2.971691
-0.259537 0.926787 2.945078
-0.219796 0.836990 2.659728
-0.203541 0.830214 2.638194
-0.189571 0.832439 2.645265
-0.175391 0.834029 2.650317
-0.161023 0.834933 2.653191
-0.146612 0.835774 2.655864
-0.133706 0.846329 2.689404
-0.131569 0.936117 2.974726
-0.115702 0.939817 2.986482
0.049614 0.967991 3.076011
0.058596 0.853036 2.710716
0.072518 0.841979 2.675580
0.087155 0.841554 2.674231
0.101439 0.838334 2.663999
0.115495 0.834275 2.651101
0.130035 0.834228 2.650951
0.145277 0.838247 2.663721
0.218377 0.967897 3.075714
0.235552 0.969122 3.079607
-0.311136 0.952494 2.974896
-0.294805 0.952472 2.974826
-0.278098 0.951160 2.970728
-0.259720 0.943611 2.947150
-0.220095 0.852743 2.663346
-0.203827 0.845878 2.641905
-0.189672 0.847405 2.646674
-0.175181 0.847554 2.647141
-0.160640 0.847473 2.646885
-0.146943 0.852270 2.661868
-0.133904 0.862359 2.693379
-0.131240 0.950058 2.967288
-0.115492 0.954468 2.981062
0.049635 0.985281 3.077296
0.058508 0.866612 2.706661
0.072425 0.855567 2.672167
0.086899 0.853709 2.666362
0.101388 0.852519 2.662647
0.115655 0.850000 2.654779
0.129921 0.848034 2.648639
0.145112 0.851896 2.660702
0.163806 0.873732 2.728899
0.201765 0.986067 3.079751
0.218597 0.985763 3.078804
0.235215 0.984613 3.075210
-0.310892 0.968058 2.972563
-0.294726 0.968536 2.974031
-0.278238 0.967945 2.972217
-0.259299 0.958225 2.942369
-0.220498 0.868943 2.668215
-0.204457 0.863032 2.650064
-0.189899 0.862959 2.649840
-0.175375 0.863037 2.650082
-0.160578 0.861662 2.645860
-0.147033 0.867407 2.663498
-0.133987 0.877684 2.695058
-0.130970 0.964355 2.961192
-0.115509 0.970974 2.981515
0.049639 1.002259 3.077581
0.058780 0.885550 2.719210
0.072550 0.871730 2.676775
0.086812 0.867475 2.663708
0.101266 0.866086 2.659442
0.115601 0.864165 2.653543
0.129863 0.862179 2.647447
0.145462 0.868583 2.667112
0.201678 1.002533 3.078423
0.218421 1.001852 3.076333
0.234983 1.000497 3.072173
-0.311169 0.985246 2.975212
-0.294706 0.984785 2.973821
-0.278202 0.984127 2.971833
-0.260092 0.977352 2.951373
-0.220472 0.883479 2.667899
-0.204422 0.877425 2.649617
-0.190047 0.878182 2.651902
-0.175690 0.879155 2.654842
-0.160936 0.878137 2.651769
-0.147394 0.884184 2.670030
-0.131342 0.983389 2.969603
-0.115503 0.987280 2.981354
0.049634 1.019032 3.077238
0.072781 0.889240 2.685297
0.086832 0.882296 2.664328
0.101101 0.879247 2.655119
0.115438 0.877481 2.649787
0.129848 0.876605 2.647143
0.145023 0.880555 2.659070
0.201480 1.018427 3.075409
0.218149 1.017463 3.072499
0.235416 1.019230 3.077834
-0.310747 1.000215 2.971183
-0.294837 1.001551 2.975151
-0.278441 1.001293 2.974385
-0.260847 0.996429 2.959935
-0.220592 0.898608 2.669356
-0.204349 0.891645 2.648671
-0.190168 0.893300 2.653587
-0.175754 0.894046 2.655804
-0.161328 0.894858 2.658214
-0.148041 0.902780 2.681748
-0.146408 0.991360 2.944879
-0.131243 0.998929 2.967363
-0.115484 1.003474 2.980862
0.065811 1.024891 3.044484
0.073227 0.909514 2.701752
0.087115 0.899831 2.672989
0.101505 0.897387 2.665727
0.115676 0.893864 2.655262
0.130107 0.892911 2.652432
0.145214 0.896323 2.662568
0.201358 1.034675 3.073548
0.218296 1.035018 3.074566
0.235249 1.035385 3.075656
-0.310560 1.015906 2.969395
-0.294512 1.016753 2.971869
-0.278043 1.016162 2.970142
-0.260981 1.013193 2.961464
-0.221234 0.915914 2.677127
-0.204372 0.906281 2.648970
-0.190101 0.907544 2.652661
-0.175602 0.907833 2.653506
-0.161126 0.908309 2.654898
-0.148712 0.921657 2.693913
-0.147365 1.014109 2.964142
-0.131182 1.014736 2.965974
-0.115187 1.017210 2.973203
0.049658 1.053308 3.078717
0.066191 1.047611 3.062064
0.073401 0.926527 2.708148
0.086954 0.912814 2.668066
0.101689 0.913667 2.670560
0.115871 0.909961 2.659727
0.130218 0.908238 2.654691
0.145070 0.910028 2.659923
0.201054 1.049950 3.068901
0.217797 1.049484 3.067540
0.234570 1.049223 3.066776
-0.310564 1.032213 2.969432
-0.294231 1.032075 2.969034
-0.277760 1.031407 2.967114
-0.260818 1.028799 2.959612
-0.221286 0.930821 2.677753
-0.204082 0.919509 2.645209
-0.190044 0.921819 2.651855
-0.175864 0.923767 2.657459
-0.161462 0.924797 2.660421
-0.149121 0.939013 2.701317
-0.147731 1.032929 2.971491
-0.131210 1.031231 2.966608
-0.115359 1.035070 2.977651
0.049617 1.069331 3.076212
0.066398 1.067746 3.071651
0.087089 0.928890 2.672197
0.101705 0.928466 2.670977
0.115898 0.924776 2.660361
0.130277 0.923222 2.655890
0.145437 0.926963 2.666652
0.201063 1.066837 3.069038
0.218039 1.067502 3.070950
0.234598 1.066175 3.067134
-0.310753 1.049144 2.971238
-0.294361 1.048828 2.970342
-0.277844 1.048005 2.968013
-0.260772 1.044854 2.959089
-0.222190 0.949377 2.688692
-0.204489 0.935887 2.650488
-0.189988 0.936096 2.651079
-0.175625 0.937078 2.653859
-0.161644 0.940457 2.663429
-0.147945 1.050757 2.975805
-0.131245 1.047790 2.967403
-0.115476 1.052474 2.980668
0.032783 1.087720 3.080488
0.049701 1.088053 3.081430
0.066518 1.086550 3.077173
0.087369 0.946585 2.680784
0.101682 0.942911 2.670380
0.115915 0.939508 2.660743
0.130322 0.938121 2.656813
0.145494 0.941967 2.667706
0.201411 1.085551 3.074343
0.217984 1.084080 3.070180
0.234338 1.081807 3.063741
-0.310899 1.065948 2.972633
-0.294162 1.064407 2.968337
-0.277792 1.064093 2.967460
-0.260584 1.060328 2.956962
-0.223178 0.968416 2.700644
-0.204781 0.951785 2.654265
-0.189936 0.950380 2.650346
-0.175627 0.951648 2.653882
-0.162091 0.957714 2.670799
-0.163517 1.062172 2.962102
-0.147719 1.065453 2.971254
-0.131134 1.063176 2.964903
-0.115393 1.068055 2.978509
0.032776 1.104390 3.079838
0.066599 1.104779 3.080922
0.082587 1.092641 3.047072
0.087949 0.967679 2.698590
0.101941 0.959999 2.677171
0.116020 0.954971 2.663149
0.130314 0.952638 2.656642
0.145510 0.956705 2.667985
0.183279 1.094879 3.053313
0.201212 1.101334 3.071314
0.217739 1.099686 3.066720
0.234524 1.099490 3.066172
-0.294335 1.081330 2.970080
-0.278092 1.081539 2.970656
-0.260383 1.075722 2.954679
-0.222664 0.980972 2.694429
-0.205147 0.968077 2.659011
-0.190350 0.967029 2.656131
-0.176233 0.969543 2.663035
-0.162992 0.977773 2.685643
-0.163556 1.078680 2.962802
-0.147657 1.081304 2.970011
-0.131085 1.079037 2.963783
-0.115181 1.082410 2.973047
-0.101823 1.114766 3.061919
0.049692 1.121658 3.080849
0.066562 1.121072 3.079240
0.083001 1.114928 3.062365
0.088084 0.983996 2.702735
0.102024 0.975482 2.679350
0.116216 0.971227 2.667662
0.130329 0.967330 2.656958
0.145559 0.971675 2.668892
0.183598 1.113567 3.058626
0.201384 1.119139 3.073932
0.218419 1.120005 3.076309
0.234421 1.115821 3.064819
-0.294611 1.098655 2.972863
-0.278382 1.098987 2.973762
-0.260149 1.090952 2.952019
-0.223963 1.001568 2.710153
-0.205302 0.983412 2.661026
-0.190753 0.983680 2.661751
-0.176534 0.985836 2.667585
-0.164598 1.002289 2.712104
-0.163309 1.093282 2.958324
-0.147244 1.094535 2.961713
-0.131024 1.094791 2.962406
-0.114983 1.096835 2.967937
0.083190 1.134313 3.069351
0.088257 1.000793 2.708058
0.101843 0.988425 2.674591
0.116134 0.985161 2.665758
0.130304 0.981718 2.656442
0.145830 0.988154 2.673856
-0.291440 1.102969 2.940870
-0.274959 1.101588 2.937188
-0.257765 1.097003 2.924963
-0.223749 1.015466 2.707560
-0.205356 0.998275 2.661724
-0.190691 0.997964 2.660893
-0.176827 1.002135 2.672014
-0.161656 1.098284 2.928378
-0.145686 1.099032 2.930374
-0.129864 1.101213 2.936189
-0.113714 1.100838 2.935189
0.083353 1.153412 3.075368
0.089002 1.024216 2.730889
0.102082 1.005456 2.680871
0.116107 0.999561 2.665151
0.130244 0.995840 2.655230
0.145357 0.999577 2.665195
0.184684 1.153918 3.076716
0.218763 1.155581 3.081152
-0.290267 1.114601 2.929032
-0.273962 1.113655 2.926547
-0.257447 1.111683 2.921364
-0.205264 1.012425 2.660527
-0.190660 1.012396 2.660451
-0.177744 1.022069 2.685869
-0.161640 1.114245 2.928097
-0.145602 1.114465 2.928675
-0.129514 1.114308 2.928263
-0.113417 1.114020 2.927506
0.102644 1.025790 2.695648
0.116236 1.015309 2.668106
0.130455 1.012043 2.659524
0.145932 1.018212 2.675734
0.184684 1.170801 3.076720
-0.290191 1.130375 2.928261
-0.274056 1.130100 2.927548
-0.257842 1.129441 2.925840
-0.205170 1.026552 2.659306
-0.190369 1.025428 2.656393
-0.177555 1.035707 2.683021
-0.175783 1.118073 2.896392
-0.161387 1.128539 2.923505
-0.145629 1.130746 2.929223
-0.129575 1.130909 2.929643
0.102799 1.042153 2.699719
0.116196 1.029599 2.667197
0.130440 1.026521 2.659225
0.146072 1.033885 2.678300
0.184628 1.187326 3.075793
-0.290500 1.147663 2.931378
-0.274397 1.147588 2.931185
-0.257845 1.145507 2.925871
-0.204909 1.039821 2.655925
-0.190214 1.039155 2.654225
-0.177452 1.049820 2.681467
-0.176546 1.138888 2.908965
-0.161418 1.144802 2.924070
-0.145502 1.145817 2.926661
-0.129638 1.147541 2.931066
0.103241 1.061510 2.711326
0.116610 1.047949 2.676686
0.130276 1.039804 2.655882
0.145074 1.041412 2.659990
0.183904 1.199477 3.063722
-0.290047 1.161935 2.926812
-0.274517 1.164183 2.932473
-0.258214 1.163225 2.930061
-0.204688 1.053257 2.653061
-0.190263 1.053991 2.654910
-0.177799 1.066615 2.686707
-0.177020 1.157956 2.916787
-0.161478 1.161283 2.925170
-0.145593 1.162606 2.928502
-0.129585 1.163148 2.929867
0.103432 1.078371 2.716321
0.116662 1.063113 2.677888
0.130387 1.055276 2.658147
0.144550 1.052199 2.650395
0.183806 1.215639 3.062086
0.201653 1.221976 3.078049
0.218542 1.221971 3.078037
0.235149 1.220505 3.074344
-0.306145 1.178143 2.927179
-0.289878 1.177310 2.925109
-0.274150 1.178694 2.928549
-0.257970 1.178188 2.927291
-0.204398 1.066305 2.649311
-0.190175 1.068069 2.653694
-0.177530 1.079720 2.682642
-0.176925 1.173328 2.915218
-0.161384 1.176648 2.923467
-0.145529 1.178155 2.927209
-0.129434 1.177850 2.926451
0.049169 1.226934 3.048405
0.066097 1.230675 3.057698
0.083032 1.233009 3.063498
0.103261 1.091469 2.711832
0.115935 1.071089 2.661196
0.129936 1.066155 2.648937
0.144599 1.067102 2.651290
0.200352 1.230870 3.058184
0.216053 1.224753 3.042986
0.234003 1.231343 3.059358
0.250737 1.231085 3.058717
-0.306259 1.194649 2.928268
-0.290508 1.195952 2.931462
-0.273983 1.194038 2.926770
-0.257380 1.191519 2.920597
-0.223126 1.101529 2.700016
-0.204257 1.080094 2.647475
-0.189711 1.079985 2.647210
-0.177565 1.094657 2.683172
-0.177185 1.191070 2.919495
-0.161599 1.194278 2.927358
-0.145605 1.194841 2.928739
-0.129538 1.194875 2.928822
0.065349 1.233334 3.023092
0.081778 1.230947 3.017242
0.102491 1.098106 2.691628
0.115490 1.081529 2.650995
0.129781 1.079405 2.645789
0.144776 1.082972 2.654531
0.197505 1.229923 3.014731
0.214725 1.233816 3.024274
0.232541 1.240331 3.040243
0.246864 1.228591 3.011467
0.265030 1.236249 3.030237
-0.323582 1.215432 2.939673
-0.307452 1.215432 2.939673
-0.290974 1.213982 2.936167
-0.273830 1.209419 2.925130
-0.220961 1.105512 2.673818
-0.203885 1.092627 2.642654
-0.189252 1.091866 2.640815
-0.177055 1.106193 2.675464
-0.176339 1.201329 2.905563
-0.161525 1.209788 2.926023
-0.145528 1.210270 2.927189
-0.129318 1.208880 2.923826
0.064285 1.229587 2.973909
0.080619 1.229828 2.974491
0.102004 1.107587 2.678838
0.115751 1.098547 2.656973
0.129564 1.092090 2.641356
0.144414 1.094797 2.647904
0.195805 1.235736 2.988781
0.212616 1.238131 2.994573
0.226704 1.225463 2.963934
0.244861 1.235014 2.987036
0.261242 1.234969 2.986926
-0.337019 1.221798 2.916367
-0.320159 1.218534 2.908574
-0.304487 1.219686 2.911324
-0.289899 1.225550 2.925321
-0.272344 1.218819 2.909254
-0.219747 1.114030 2.659129
-0.203429 1.104654 2.636750
-0.189648 1.108667 2.646328
-0.176989 1.120456 2.674468
-0.174960 1.207753 2.882842
-0.161637 1.226692 2.928048
-0.145347 1.224807 2.923549
-0.129266 1.224433 2.922655
0.047437 1.232134 2.941039
0.063730 1.235149 2.948235
0.079341 1.226395 2.927338
0.094992 1.221095 2.914689
0.103303 1.136576 2.712947
0.116163 1.117093 2.666440
0.129305 1.104371 2.636074
0.144159 1.107369 2.643230
0.160282 1.118664 2.670190
0.206662 1.219430 2.910713
0.222852 1.220627 2.913572
0.237619 1.214389 2.898682
0.255295 1.222871 2.918928
0.271438 1.223444 2.920295
-0.351711 1.233205 2.905538
-0.336375 1.235434 2.910791
-0.318638 1.228630 2.894760
-0.303105 1.230051 2.898108
-0.287644 1.231943 2.902565
-0.237187 1.142342 2.691457
-0.218422 1.121817 2.643099
-0.203210 1.117914 2.633903
-0.190025 1.125426 2.651601
-0.178510 1.144887 2.697453
-0.174333 1.219188 2.872513
-0.160528 1.234227 2.907947
-0.144083 1.230053 2.898113
-0.127921 1.227569 2.892261
0.046767 1.230633 2.899478
0.063031 1.237600 2.915894
0.078823 1.234343 2.908219
0.094665 1.232834 2.904664
0.116729 1.137239 2.679435
0.129542 1.120890 2.640915
0.143889 1.119770 2.638277
0.159323 1.126536 2.654217
0.204846 1.224548 2.885142
0.221316 1.228092 2.893493
0.234767 1.215529 2.863893
0.251030 1.218191 2.870164
0.266237 1.215718 2.864339
-0.364196 1.237399 2.878210
-0.350699 1.245555 2.897181
-0.334458 1.244274 2.894203
-0.317382 1.239608 2.883348
-0.301895 1.240981 2.886543
-0.284473 1.234113 2.870567
-0.260803 1.197746 2.785976
-0.235111 1.146985 2.667905
-0.217017 1.129012 2.626101
-0.202310 1.127355 2.622247
-0.189541 1.137067 2.644837
-0.178986 1.162777 2.704640
-0.173981 1.232451 2.866701
-0.157414 1.225936 2.851548
