# .PCD v0.7 - Point Cloud Data file format
VERSION 0.7
FIELDS x y z
SIZE 4 4 4
TYPE F F F
COUNT 1 1 1
WIDTH 1728
HEIGHT 1
VIEWPOINT 0 0 0 1 0 0 0
POINTS 1728
DATA ascii
0.040049 -0.131464 2.482975
0.053668 -0.131452 2.482752
0.067058 -0.130997 2.474144
0.080528 -0.130824 2.470887
0.094354 -0.131197 2.477937
0.107888 -0.131121 2.476496
0.121279 -0.130907 2.472447
0.134989 -0.131046 2.475076
0.148914 -0.131350 2.480812
0.162382 -0.131233 2.478604
0.176541 -0.131650 2.486481
0.191240 -0.132380 2.500278
0.205721 -0.132872 2.509562
0.220652 -0.133575 2.522833
0.235062 -0.133898 2.528938
0.248949 -0.133903 2.529040
0.264320 -0.134664 2.543414
0.281338 -0.136146 2.571406
-0.225364 -0.121367 2.557303
-0.209686 -0.120422 2.537389
-0.194890 -0.119885 2.526073
-0.180766 -0.119710 2.522388
-0.166895 -0.119689 2.521932
-0.152441 -0.119207 2.511787
-0.137751 -0.118427 2.495352
-0.123518 -0.117911 2.484478
-0.109529 -0.117529 2.476421
-0.095608 -0.117122 2.467841
-0.082102 -0.117172 2.468899
-0.068577 -0.117208 2.469670
-0.055012 -0.117179 2.469054
-0.041480 -0.117225 2.470031
-0.027881 -0.117034 2.466000
-0.014355 -0.117075 2.466866
-0.000820 -0.117212 2.469752
0.012780 -0.117654 2.479065
0.026445 -0.117931 2.484894
0.040030 -0.117786 2.481832
0.053613 -0.117707 2.480177
0.067151 -0.117583 2.477571
0.080564 -0.117319 2.471997
0.094258 -0.117480 2.475399
0.107949 -0.117598 2.477883
0.121455 -0.117511 2.476046
0.135269 -0.117709 2.480214
0.148879 -0.117710 2.480238
0.162344 -0.117605 2.478027
0.176525 -0.117995 2.486247
0.190857 -0.118423 2.495271
0.205628 -0.119048 2.508439
0.220883 -0.119857 2.525484
0.235768 -0.120382 2.536538
0.249359 -0.120224 2.533204
0.264271 -0.120686 2.542943
0.280458 -0.121655 2.563363
-0.225450 -0.107376 2.558275
-0.209302 -0.106304 2.532734
-0.194818 -0.105985 2.525130
-0.180782 -0.105880 2.522622
-0.167154 -0.106015 2.525847
-0.152580 -0.105521 2.514084
-0.137723 -0.104714 2.494847
-0.123645 -0.104386 2.487036
-0.109812 -0.104209 2.482823
-0.095809 -0.103797 2.473009
-0.082232 -0.103789 2.472811
-0.068691 -0.103831 2.473804
-0.055125 -0.103844 2.474127
-0.041536 -0.103811 2.473343
-0.027933 -0.103698 2.470635
-0.014370 -0.103645 2.469382
-0.000822 -0.103914 2.475798
0.012782 -0.104067 2.479432
0.026424 -0.104212 2.482888
0.040075 -0.104283 2.484581
0.053638 -0.104147 2.481337
0.067155 -0.103995 2.477729
0.080605 -0.103807 2.473244
0.094300 -0.103943 2.476495
0.108164 -0.104209 2.482832
0.121564 -0.104018 2.478269
0.135229 -0.104069 2.479477
0.148964 -0.104160 2.481649
0.162824 -0.104316 2.485359
0.176898 -0.104573 2.491502
0.191310 -0.104980 2.501193
0.206219 -0.105587 2.515641
0.221988 -0.106530 2.538116
0.236095 -0.106611 2.540055
0.250026 -0.106608 2.539980
0.264177 -0.106695 2.542039
0.279878 -0.107367 2.558063
0.297194 -0.108565 2.586606
-0.240571 -0.093761 2.569853
-0.224807 -0.093072 2.550982
-0.209336 -0.092422 2.533151
-0.194805 -0.092123 2.524965
-0.181251 -0.092276 2.529163
-0.168023 -0.092635 2.538987
-0.152792 -0.091853 2.517566
-0.137886 -0.091132 2.497797
-0.123968 -0.090976 2.493525
-0.109975 -0.090720 2.486507
-0.096113 -0.090514 2.480860
-0.082381 -0.090383 2.477270
-0.068672 -0.090231 2.473094
-0.055188 -0.090372 2.476967
-0.041600 -0.090379 2.477175
-0.027984 -0.090302 2.475064
-0.014411 -0.090358 2.476579
-0.000822 -0.090331 2.475854
0.012774 -0.090409 2.477985
0.026422 -0.090583 2.482745
0.040068 -0.090634 2.484148
0.053657 -0.090564 2.482230
0.067140 -0.090379 2.477160
0.080773 -0.090425 2.478420
0.094432 -0.090482 2.479974
0.108205 -0.090620 2.483759
0.121870 -0.090647 2.484501
0.135780 -0.090832 2.489586
0.149615 -0.090938 2.492493
0.163196 -0.090885 2.491038
0.177281 -0.091099 2.496899
0.191886 -0.091531 2.508725
0.206748 -0.092018 2.522093
0.222987 -0.093020 2.549538
0.236952 -0.093010 2.549276
0.250334 -0.092785 2.543109
0.263969 -0.092673 2.540037
0.278671 -0.092928 2.547029
0.294301 -0.093453 2.561426
-0.239972 -0.079461 2.563449
-0.224069 -0.078815 2.542609
-0.209278 -0.078500 2.532448
-0.195161 -0.078411 2.529577
-0.181667 -0.078579 2.534974
-0.168594 -0.078970 2.547609
-0.153783 -0.078545 2.533897
-0.138862 -0.077974 2.515469
-0.124484 -0.077615 2.503896
-0.110316 -0.077315 2.494216
-0.096235 -0.076999 2.484005
-0.082547 -0.076945 2.482271
-0.068938 -0.076958 2.482687
-0.055195 -0.076790 2.477274
-0.041601 -0.076789 2.477250
-0.028004 -0.076779 2.476911
-0.014378 -0.076592 2.470877
-0.000822 -0.076708 2.474629
0.012765 -0.076754 2.476110
0.026417 -0.076945 2.482261
0.040112 -0.077088 2.486871
0.053679 -0.076975 2.483256
0.067084 -0.076723 2.475097
0.080657 -0.076715 2.474855
0.094395 -0.076843 2.478998
0.108330 -0.077080 2.486642
0.121975 -0.077080 2.486639
0.136173 -0.077395 2.496790
0.149923 -0.077421 2.497632
0.163995 -0.077594 2.503223
0.178313 -0.077849 2.511437
0.192694 -0.078092 2.519280
0.208076 -0.078682 2.538295
0.224293 -0.079493 2.564464
0.236904 -0.079006 2.548757
0.250371 -0.078843 2.543492
0.264113 -0.078779 2.541429
0.278552 -0.078919 2.545941
0.293768 -0.079255 2.556789
0.310009 -0.079824 2.575159
-0.254565 -0.065531 2.568766
-0.238698 -0.065048 2.549839
-0.223399 -0.064670 2.535005
-0.209260 -0.064599 2.532229
-0.195530 -0.064653 2.534359
-0.182233 -0.064870 2.542870
-0.169543 -0.065357 2.561949
-0.154518 -0.064950 2.546006
-0.139329 -0.064387 2.523928
-0.124788 -0.064032 2.510014
-0.110656 -0.063825 2.501905
-0.096509 -0.063549 2.491090
-0.082778 -0.063501 2.489203
-0.069051 -0.063439 2.486765
-0.055240 -0.063249 2.479324
-0.041614 -0.063216 2.478036
-0.027928 -0.063015 2.470150
-0.014361 -0.062959 2.467964
-0.000822 -0.063151 2.475458
0.012806 -0.063371 2.484100
0.026452 -0.063409 2.485590
0.040108 -0.063437 2.486665
0.053745 -0.063427 2.486304
0.067177 -0.063229 2.478515
0.080637 -0.063119 2.474222
0.094403 -0.063247 2.479226
0.108362 -0.063455 2.487374
0.122258 -0.063583 2.492408
0.136195 -0.063705 2.497200
0.150128 -0.063803 2.501041
0.163977 -0.063852 2.502948
0.178651 -0.064190 2.516200
0.193952 -0.064688 2.535727
0.209893 -0.065319 2.560460
0.225404 -0.065745 2.577168
0.237836 -0.065276 2.558784
0.251286 -0.065123 2.552780
0.264776 -0.064996 2.547809
0.278666 -0.064975 2.546987
0.292773 -0.065004 2.548128
0.308543 -0.065383 2.562979
-0.253746 -0.051270 2.560504
-0.238244 -0.050960 2.544990
-0.223581 -0.050801 2.537062
-0.209428 -0.050745 2.534266
-0.195895 -0.050842 2.539089
-0.182726 -0.051055 2.549745
-0.170627 -0.051627 2.578335
-0.155252 -0.051222 2.558102
-0.139849 -0.050727 2.533351
-0.125200 -0.050425 2.518298
-0.111068 -0.050283 2.511210
-0.096777 -0.050019 2.498000
-0.082868 -0.049897 2.491930
-0.069144 -0.049861 2.490103
-0.055423 -0.049809 2.487503
-0.041634 -0.049643 2.479207
-0.027946 -0.049494 2.471762
-0.014375 -0.049463 2.470243
-0.000823 -0.049654 2.479786
0.012835 -0.049853 2.489711
0.026515 -0.049888 2.491449
0.040124 -0.049811 2.487634
0.053698 -0.049741 2.484127
0.067293 -0.049715 2.482822
0.080823 -0.049657 2.479952
0.094552 -0.049721 2.483121
0.108402 -0.049825 2.488293
0.122360 -0.049949 2.494486
0.136342 -0.050057 2.499896
0.150411 -0.050174 2.505759
0.164342 -0.050230 2.508525
0.178915 -0.050458 2.519917
0.194269 -0.050857 2.539881
0.211011 -0.051543 2.574099
0.239730 -0.051644 2.579163
0.252256 -0.051313 2.562639
0.265079 -0.051075 2.550719
0.278498 -0.050969 2.545443
0.292577 -0.050988 2.546424
0.308289 -0.051278 2.560867
0.324178 -0.051570 2.575465
-0.269072 -0.037398 2.572709
-0.253349 -0.037162 2.556497
-0.238225 -0.036992 2.544793
-0.223765 -0.036910 2.539157
-0.209621 -0.036873 2.536602
-0.196514 -0.037026 2.547121
-0.183755 -0.037273 2.564103
-0.140324 -0.036951 2.541953
-0.125692 -0.036751 2.528210
-0.111298 -0.036580 2.516406
-0.096960 -0.036381 2.502738
-0.082964 -0.036266 2.494802
-0.069172 -0.036212 2.491096
-0.055431 -0.036165 2.487857
-0.041681 -0.036079 2.481991
-0.027967 -0.035957 2.473576
-0.014410 -0.035997 2.476323
-0.000824 -0.036085 2.482401
0.012855 -0.036247 2.493540
0.026572 -0.036296 2.496872
0.040212 -0.036241 2.493090
0.053789 -0.036171 2.488315
0.067275 -0.036082 2.482139
0.080856 -0.036064 2.480956
0.094546 -0.036094 2.482965
0.108277 -0.036129 2.485415
0.122608 -0.036335 2.499547
0.136620 -0.036414 2.504989
0.150935 -0.036552 2.514485
0.165039 -0.036620 2.519159
0.180101 -0.036873 2.536613
0.195121 -0.037083 2.551021
0.253975 -0.037506 2.580102
0.265809 -0.037181 2.557745
0.279569 -0.037144 2.555236
0.293648 -0.037151 2.555739
0.307463 -0.037126 2.554008
0.322897 -0.037290 2.565288
0.338961 -0.037510 2.580424
-0.267682 -0.023161 2.559415
-0.252910 -0.023095 2.552068
-0.238287 -0.023035 2.545452
-0.224306 -0.023033 2.545292
-0.210154 -0.023013 2.543041
-0.197401 -0.023154 2.558620
-0.126343 -0.022997 2.541300
-0.111901 -0.022895 2.530053
-0.097430 -0.022758 2.514846
-0.083307 -0.022670 2.505125
-0.069325 -0.022593 2.496608
-0.055430 -0.022513 2.487854
-0.041724 -0.022484 2.484549
-0.028017 -0.022424 2.478011
-0.014426 -0.022435 2.479130
-0.000827 -0.022531 2.489847
0.012888 -0.022624 2.500106
0.026637 -0.022650 2.502926
0.040272 -0.022595 2.496821
0.053882 -0.022557 2.492616
0.067394 -0.022501 2.486518
0.080886 -0.022459 2.481860
0.094695 -0.022505 2.486886
0.108690 -0.022577 2.494896
0.122860 -0.022666 2.504687
0.136754 -0.022691 2.507445
0.151434 -0.022830 2.522804
0.165496 -0.022860 2.526148
0.181083 -0.023080 2.550451
0.196947 -0.023301 2.574892
0.255805 -0.023516 2.598690
0.268387 -0.023370 2.582550
0.280335 -0.023187 2.562234
0.293483 -0.023115 2.554306
0.307419 -0.023109 2.553640
0.322144 -0.023160 2.559307
0.338655 -0.023330 2.578093
-0.282747 -0.009150 2.568696
-0.267745 -0.009119 2.560015
-0.252899 -0.009091 2.551963
-0.238489 -0.009075 2.547610
-0.224441 -0.009072 2.546822
-0.210945 -0.009093 2.552625
-0.198293 -0.009156 2.570172
-0.127519 -0.009137 2.564941
-0.112253 -0.009041 2.538011
-0.097643 -0.008978 2.520353
-0.083440 -0.008938 2.509109
-0.069332 -0.008895 2.496890
-0.055583 -0.008887 2.494680
-0.041742 -0.008854 2.485611
-0.028055 -0.008839 2.481426
-0.014447 -0.008844 2.482753
-0.000827 -0.008874 2.491239
0.012873 -0.008895 2.497067
0.026590 -0.008900 2.498555
0.040289 -0.008898 2.497886
0.053902 -0.008883 2.493575
0.067394 -0.008858 2.486526
0.080955 -0.008849 2.483978
0.094809 -0.008870 2.489886
0.108800 -0.008896 2.497426
0.122959 -0.008929 2.506703
0.137214 -0.008962 2.515891
0.151343 -0.008981 2.521274
0.165975 -0.009025 2.533458
0.181440 -0.009103 2.555480
0.270592 -0.009275 2.603774
0.281385 -0.009161 2.571835
0.294548 -0.009132 2.563576
0.307955 -0.009113 2.558095
0.322505 -0.009127 2.562172
0.337976 -0.009165 2.572925
-0.283622 0.004960 2.576640
-0.267737 0.004928 2.559946
-0.253165 0.004917 2.554639
-0.238680 0.004908 2.549649
-0.224857 0.004911 2.551542
-0.212587 0.004952 2.572484
-0.128217 0.004964 2.578983
-0.112857 0.004912 2.551666
-0.098122 0.004875 2.532727
-0.083600 0.004839 2.513925
-0.069610 0.004825 2.506888
-0.055648 0.004808 2.497611
-0.041882 0.004801 2.493978
-0.028090 0.004782 2.484491
-0.014467 0.004785 2.486122
-0.000827 0.004797 2.492146
0.012900 0.004817 2.502316
0.026635 0.004818 2.502775
0.040328 0.004813 2.500272
0.053992 0.004808 2.497745
0.067494 0.004793 2.490226
0.081087 0.004789 2.488056
0.094973 0.004801 2.494185
0.108875 0.004811 2.499138
0.123314 0.004839 2.513934
0.137766 0.004862 2.526007
0.151791 0.004868 2.528749
0.166821 0.004901 2.546371
0.183428 0.004973 2.583470
0.270793 0.005016 2.605704
0.284258 0.005001 2.598089
0.296261 0.004963 2.578488
0.308820 0.004938 2.565285
0.322670 0.004934 2.563489
0.338221 0.004956 2.574787
0.355000 0.004993 2.594157
-0.282889 0.019049 2.569985
-0.267252 0.018940 2.555302
-0.253438 0.018955 2.557399
-0.239361 0.018952 2.556922
-0.225892 0.018999 2.563287
-0.215141 0.019296 2.603396
-0.128670 0.019183 2.588111
-0.113240 0.018977 2.560329
-0.098341 0.018814 2.538385
-0.083871 0.018694 2.522091
-0.069817 0.018636 2.514331
-0.055727 0.018539 2.501152
-0.041961 0.018520 2.498669
-0.028151 0.018455 2.489840
-0.014466 0.018426 2.486021
-0.000828 0.018484 2.493763
0.012908 0.018560 2.503991
0.026643 0.018556 2.503488
0.040431 0.018580 2.506688
0.054095 0.018548 2.502486
0.067630 0.018495 2.495245
0.081253 0.018479 2.493133
0.095206 0.018532 2.500305
0.108972 0.018540 2.501367
0.123427 0.018650 2.516256
0.137904 0.018741 2.528537
0.152277 0.018803 2.536846
0.167823 0.018987 2.561660
0.286432 0.019404 2.617960
0.298973 0.019287 2.602087
0.310421 0.019112 2.578579
0.324221 0.019092 2.575810
0.337661 0.019053 2.570529
0.352250 0.019079 2.574063
-0.298445 0.033313 2.582567
-0.282597 0.033116 2.567335
-0.267408 0.032980 2.556796
-0.253785 0.033033 2.560902
-0.240638 0.033158 2.570560
-0.229017 0.033522 2.598756
-0.113675 0.033153 2.570152
-0.098661 0.032849 2.546642
-0.084305 0.032701 2.535139
-0.070136 0.032581 2.525825
-0.055969 0.032403 2.512019
-0.041999 0.032260 2.500947
-0.028192 0.032164 2.493541
-0.014518 0.032182 2.494887
-0.000829 0.032207 2.496855
0.012911 0.032307 2.504561
0.026690 0.032350 2.507904
0.040417 0.032323 2.505833
0.054127 0.032299 2.503971
0.067695 0.032217 2.497654
0.081370 0.032205 2.496724
0.095325 0.032292 2.503432
0.109025 0.032281 2.502582
0.123372 0.032443 2.515126
0.137974 0.032632 2.529809
0.152837 0.032843 2.546170
0.168163 0.033110 2.566845
0.299914 0.033670 2.610280
0.313031 0.033541 2.600258
0.325494 0.033356 2.585923
0.338149 0.033205 2.574241
0.352135 0.033192 2.573224
0.369164 0.033456 2.593666
-0.298194 0.047444 2.580394
-0.282569 0.047199 2.567075
-0.267995 0.047113 2.562406
-0.254624 0.047241 2.569364
-0.242255 0.047581 2.587839
-0.113804 0.047309 2.573068
-0.098969 0.046969 2.554594
-0.084354 0.046639 2.536611
-0.070155 0.046453 2.526517
-0.055942 0.046164 2.510803
-0.042077 0.046068 2.505582
-0.028273 0.045978 2.500683
-0.014549 0.045971 2.500291
-0.000832 0.046072 2.505814
0.012931 0.046120 2.508389
0.026706 0.046138 2.509400
0.040473 0.046136 2.509285
0.054161 0.046068 2.505557
0.067886 0.046052 2.504693
0.081587 0.046028 2.503386
0.095403 0.046066 2.505482
0.109188 0.046082 2.506338
0.123405 0.046256 2.515791
0.138142 0.046570 2.532902
0.153404 0.046988 2.555612
0.168438 0.047272 2.571042
0.313462 0.047875 2.603841
0.326915 0.047753 2.597209
0.339267 0.047487 2.582753
0.353050 0.047435 2.579912
0.368263 0.047571 2.587338
-0.296954 0.061346 2.569665
-0.282775 0.061329 2.568948
-0.268636 0.061319 2.568536
-0.256146 0.061706 2.584723
-0.242865 0.061936 2.594354
-0.114138 0.061608 2.580612
-0.099023 0.061020 2.555981
-0.084378 0.060575 2.537335
-0.070195 0.060351 2.527967
-0.056143 0.060157 2.519851
-0.042134 0.059898 2.508976
-0.028289 0.059732 2.502056
-0.014564 0.059749 2.502743
-0.000833 0.059870 2.507827
0.012941 0.059929 2.510288
0.026775 0.060063 2.515924
0.040556 0.060028 2.514434
0.054164 0.059818 2.505661
0.067982 0.059880 2.508233
0.081758 0.059889 2.508617
0.095515 0.059884 2.508413
0.109470 0.059989 2.512795
0.123764 0.060235 2.523124
0.138469 0.060612 2.538890
0.153672 0.061118 2.560076
0.169049 0.061602 2.580380
0.314347 0.062338 2.611190
0.326926 0.062006 2.597297
0.340138 0.061817 2.589386
0.354304 0.061810 2.589071
0.369737 0.062016 2.597691
-0.315486 0.076522 2.606281
-0.297501 0.075585 2.574396
-0.282864 0.075449 2.569757
-0.268889 0.075484 2.570955
-0.256587 0.076019 2.589173
-0.114201 0.075810 2.582041
-0.099068 0.075079 2.557137
-0.084597 0.074691 2.543925
-0.070086 0.074107 2.524034
-0.055999 0.073794 2.513382
-0.042110 0.073623 2.507552
-0.028345 0.073607 2.507009
-0.014591 0.073621 2.507486
-0.000832 0.073540 2.504733
0.012939 0.073690 2.509850
0.026814 0.073975 2.519545
0.040575 0.073859 2.515599
0.054229 0.073656 2.508686
0.067955 0.073613 2.507225
0.081728 0.073628 2.507718
0.095440 0.073590 2.506447
0.109507 0.073802 2.513653
0.123778 0.074088 2.523412
0.138266 0.074434 2.535170
0.153633 0.075146 2.559426
0.170092 0.076228 2.596291
0.326562 0.076173 2.594407
0.340057 0.076007 2.588767
0.354922 0.076149 2.593590
0.371203 0.076572 2.607995
-0.316406 0.091087 2.613877
-0.299459 0.090302 2.591342
-0.283744 0.089828 2.577748
-0.269804 0.089896 2.579707
-0.257558 0.090568 2.598974
-0.114256 0.090021 2.583294
-0.098896 0.088955 2.552686
-0.084458 0.088503 2.539730
-0.070057 0.087920 2.522978
-0.055956 0.087518 2.511448
-0.042105 0.087372 2.507271
-0.028332 0.087324 2.505882
-0.014577 0.087292 2.504968
-0.000832 0.087383 2.507585
0.012952 0.087552 2.512443
0.026755 0.087609 2.514064
0.040565 0.087641 2.514987
0.054279 0.087502 2.510994
0.067896 0.087296 2.505071
0.081723 0.087382 2.507560
0.095690 0.087572 2.513013
0.109736 0.087778 2.518909
0.123668 0.087856 2.521155
0.138119 0.088250 2.532469
0.153664 0.089208 2.559940
0.169910 0.090378 2.593512
0.327825 0.090758 2.604444
0.341012 0.090465 2.596034
0.355607 0.090555 2.598597
0.372558 0.091214 2.617514
-0.317717 0.105867 2.624711
-0.300281 0.104808 2.598456
-0.284953 0.104416 2.588733
-0.270672 0.104386 2.588007
-0.258325 0.105141 2.606712
-0.114054 0.104012 2.578718
-0.098562 0.102615 2.544083
-0.084229 0.102162 2.532854
-0.069976 0.101645 2.520051
-0.055993 0.101365 2.513091
-0.042150 0.101237 2.509919
-0.028329 0.101065 2.505660
-0.014586 0.101103 2.506601
-0.000832 0.101142 2.507574
0.012934 0.101201 2.509044
0.026809 0.101606 2.519072
0.040542 0.101382 2.513530
0.054223 0.101177 2.508428
0.067924 0.101082 2.506086
0.081764 0.101192 2.508817
0.095724 0.101398 2.513909
0.109483 0.101365 2.513091
0.123297 0.101385 2.513591
0.137766 0.101886 2.526008
0.153052 0.102844 2.549759
0.168704 0.103866 2.575114
0.329656 0.105636 2.618989
0.342441 0.105149 2.606916
0.356335 0.105028 2.603913
0.373270 0.105778 2.622515
-0.301396 0.119508 2.608105
-0.285557 0.118872 2.594222
-0.271480 0.118941 2.595735
-0.259001 0.119757 2.613530
-0.113581 0.117671 2.568024
-0.098355 0.116330 2.538741
-0.083803 0.115473 2.520048
-0.069717 0.115047 2.510741
-0.055882 0.114927 2.508136
-0.042043 0.114717 2.503554
-0.028280 0.114614 2.501310
-0.014569 0.114725 2.503714
-0.000832 0.114787 2.505070
0.012937 0.114989 2.509490
0.026762 0.115227 2.514670
0.040488 0.115022 2.510206
0.054163 0.114812 2.505625
0.067970 0.114912 2.507802
0.081761 0.114954 2.508714
0.095456 0.114869 2.506857
0.109115 0.114768 2.504656
0.122986 0.114887 2.507251
0.137607 0.115612 2.523079
0.152369 0.116312 2.538367
0.168268 0.117691 2.568448
0.329857 0.120080 2.620582
0.343925 0.119971 2.618210
0.358010 0.119877 2.616159
0.374395 0.120530 2.630414
-0.302364 0.134249 2.616477
-0.286168 0.133391 2.599771
-0.272938 0.133900 2.609675
-0.260486 0.134866 2.628520
-0.128984 0.133117 2.594425
-0.113074 0.131175 2.556576
-0.098208 0.130065 2.534935
-0.083597 0.128982 2.513833
-0.069609 0.128623 2.506844
-0.055794 0.128486 2.504161
-0.042002 0.128328 2.501086
-0.028304 0.128448 2.503432
-0.014584 0.128589 2.506175
-0.000832 0.128550 2.505407
0.012912 0.128510 2.504631
0.026719 0.128817 2.510618
0.040438 0.128638 2.507132
0.054194 0.128634 2.507061
0.067858 0.128460 2.503658
0.081520 0.128341 2.501338
0.095384 0.128527 2.504967
0.108971 0.128342 2.501358
0.122774 0.128422 2.502924
0.137384 0.129247 2.519000
0.151696 0.129666 2.527163
0.167298 0.131025 2.553645
0.331922 0.135301 2.636990
0.344997 0.134756 2.626371
0.360255 0.135074 2.632559
0.376670 0.135784 2.646400
-0.305461 0.150128 2.643281
-0.287527 0.148358 2.612116
-0.273796 0.148685 2.617875
-0.261926 0.150114 2.643047
-0.128812 0.147156 2.590962
-0.112541 0.144519 2.544526
-0.097840 0.143435 2.525451
-0.083525 0.142654 2.511687
-0.069561 0.142280 2.505111
-0.055821 0.142296 2.505395
-0.041986 0.142000 2.500185
-0.028305 0.142187 2.503470
-0.014563 0.142142 2.502677
-0.000829 0.141905 2.498509
0.012856 0.141634 2.493738
0.026640 0.142173 2.503231
0.040374 0.142169 2.503159
0.054001 0.141883 2.498120
0.067675 0.141813 2.496890
0.081476 0.141989 2.499975
0.095190 0.141984 2.499887
0.109037 0.142153 2.502865
0.122882 0.142282 2.505139
0.136848 0.142510 2.509164
0.151506 0.143352 2.523989
0.167335 0.145069 2.554207
0.184460 0.147556 2.598005
0.332970 0.150243 2.645314
0.346186 0.149682 2.635426
0.361569 0.150064 2.642161
0.379027 0.151245 2.662958
-0.308567 0.166306 2.670157
-0.289573 0.163849 2.630710
-0.275016 0.163776 2.629538
-0.263065 0.165333 2.654545
-0.128890 0.161471 2.592534
-0.112379 0.158252 2.540848
-0.097678 0.157032 2.521256
-0.083326 0.156062 2.505681
-0.069442 0.155759 2.500820
-0.055653 0.155574 2.497855
-0.041901 0.155403 2.495111
-0.028276 0.155767 2.500952
-0.014530 0.155513 2.496880
-0.000827 0.155250 2.492643
0.012857 0.155339 2.494081
0.026590 0.155618 2.498557
0.040271 0.155504 2.496727
0.054003 0.155597 2.498221
0.067724 0.155628 2.498713
0.081333 0.155434 2.495599
0.095001 0.155391 2.494917
0.109014 0.155853 2.502331
0.122747 0.155857 2.502389
0.136616 0.156014 2.504925
0.151174 0.156858 2.518466
0.166166 0.157973 2.536365
0.183568 0.161030 2.585447
0.334090 0.165313 2.654216
0.347748 0.164883 2.647314
0.362906 0.165171 2.651936
0.379275 0.165966 2.664701
-0.309634 0.181583 2.679389
-0.291821 0.179668 2.651130
-0.277378 0.179735 2.652128
-0.265272 0.181408 2.676817
-0.128442 0.175086 2.583524
-0.112319 0.172102 2.539496
-0.097477 0.170515 2.516082
-0.083083 0.169315 2.498375
-0.069288 0.169106 2.495288
-0.055546 0.168954 2.493038
-0.041771 0.168567 2.487335
-0.028169 0.168845 2.491427
-0.014496 0.168822 2.491089
-0.000826 0.168626 2.488195
0.012823 0.168569 2.487365
0.026502 0.168763 2.490228
0.040216 0.168974 2.493338
0.053966 0.169189 2.496505
0.067687 0.169247 2.497363
0.081259 0.168974 2.493333
0.094957 0.169003 2.493767
0.108688 0.169077 2.494861
0.122692 0.169511 2.501267
0.136727 0.169897 2.506961
0.150596 0.170024 2.508830
0.165699 0.171407 2.529237
0.182236 0.173945 2.566692
0.336965 0.181424 2.677053
0.350242 0.180696 2.666305
0.366893 0.181697 2.681069
-0.293632 0.195420 2.667579
-0.278743 0.195244 2.665176
-0.266667 0.197128 2.690893
-0.128373 0.189160 2.582137
-0.112068 0.185621 2.533827
-0.097329 0.184040 2.512243
-0.082973 0.182783 2.495084
-0.069182 0.182518 2.491466
-0.055419 0.182215 2.487324
-0.041715 0.181972 2.484008
-0.028101 0.182075 2.485417
-0.014448 0.181891 2.482903
-0.000824 0.181934 2.483499
0.012801 0.181905 2.483095
0.026467 0.182188 2.486957
0.040091 0.182089 2.485612
0.053749 0.182153 2.486478
0.067408 0.182194 2.487045
0.081017 0.182111 2.485904
0.094820 0.182423 2.490172
0.108425 0.182325 2.488825
0.122505 0.182957 2.497452
0.136485 0.183328 2.502514
0.150303 0.183434 2.503962
0.165909 0.185520 2.532449
0.182041 0.187828 2.563944
0.338437 0.196971 2.688751
0.352586 0.196634 2.684150
0.368853 0.197457 2.695392
-0.296326 0.211985 2.692059
-0.281555 0.211985 2.692061
-0.270232 0.214726 2.726867
-0.128752 0.203929 2.589753
-0.112194 0.199749 2.536678
-0.097065 0.197288 2.505424
-0.082801 0.196068 2.489922
-0.069026 0.195748 2.485859
-0.055308 0.195472 2.482356
-0.041668 0.195382 2.481219
-0.028032 0.195235 2.479351
-0.014404 0.194919 2.475336
-0.000823 0.195301 2.480186
0.012754 0.194824 2.474126
0.026385 0.195225 2.479228
0.040060 0.195573 2.483648
0.053587 0.195207 2.478990
0.067120 0.195003 2.476409
0.080701 0.194986 2.476184
0.094405 0.195228 2.479256
0.108146 0.195476 2.482406
0.122054 0.195936 2.488248
0.136249 0.196718 2.498187
0.150468 0.197389 2.506699
0.166177 0.199738 2.536535
0.183671 0.203704 2.586899
0.339157 0.212174 2.694470
0.353628 0.211986 2.692079
0.370836 0.213388 2.709883
-0.299537 0.229213 2.721226
-0.281343 0.226586 2.690032
-0.128672 0.218004 2.588149
-0.112270 0.213812 2.538386
-0.097157 0.211237 2.507817
-0.083051 0.210361 2.497416
-0.069045 0.209446 2.486545
-0.055172 0.208578 2.476248
-0.041569 0.208500 2.475322
-0.027943 0.208176 2.471470
-0.014370 0.208005 2.469438
-0.000819 0.207804 2.467059
0.012730 0.208007 2.469464
0.026314 0.208270 2.472593
0.039921 0.208475 2.475026
0.053451 0.208280 2.472712
0.066834 0.207705 2.465884
0.080376 0.207733 2.466213
0.094119 0.208200 2.471759
0.107936 0.208692 2.477601
0.121825 0.209196 2.483587
0.135862 0.209829 2.491096
0.150601 0.211330 2.508923
0.166290 0.213801 2.538254
0.182912 0.216998 2.576214
0.340855 0.228095 2.707956
0.355678 0.228073 2.707687
-0.282664 0.242480 2.702670
-0.128990 0.232778 2.594537
-0.112266 0.227733 2.538297
-0.097495 0.225781 2.516539
-0.083051 0.224066 2.497424
-0.068964 0.222826 2.483613
-0.055003 0.221485 2.468665
-0.041383 0.221089 2.464246
-0.027812 0.220699 2.459902
-0.014311 0.220647 2.459318
-0.000817 0.220770 2.460689
0.012705 0.221108 2.464461
0.026230 0.221129 2.464696
0.039844 0.221628 2.470255
0.053380 0.221551 2.469392
0.066766 0.221009 2.463354
0.080309 0.221083 2.464176
0.093878 0.221195 2.465434
0.107670 0.221739 2.471488
0.121372 0.221996 2.474359
0.135833 0.223450 2.490567
0.150441 0.224858 2.506258
0.165821 0.227087 2.531097
0.181717 0.229625 2.559384
0.343153 0.244593 2.726217
0.358298 0.244719 2.727628
-0.284932 0.259374 2.724352
-0.273046 0.262317 2.755262
-0.128436 0.245954 2.583397
-0.112077 0.241254 2.534029
-0.097274 0.239046 2.510835
-0.082864 0.237233 2.491790
-0.068843 0.236041 2.479273
-0.054883 0.234517 2.463268
-0.041246 0.233836 2.456111
-0.027710 0.233338 2.450880
-0.014269 0.233456 2.452118
-0.000816 0.233901 2.456793
0.012676 0.234103 2.458915
0.026220 0.234565 2.463765
0.039724 0.234475 2.462827
0.053200 0.234311 2.461097
0.066564 0.233818 2.455925
0.080044 0.233830 2.456052
0.093518 0.233823 2.455977
0.107275 0.234436 2.462409
0.121202 0.235242 2.470885
0.135566 0.236650 2.485665
0.150215 0.238251 2.502481
0.165581 0.240626 2.527436
0.182479 0.244689 2.570112
0.332188 0.262710 2.759395
0.344450 0.260532 2.736515
0.358781 0.260036 2.731306
-0.285795 0.275153 2.732598
-0.272922 0.277309 2.754005
-0.129667 0.262622 2.608152
-0.112437 0.255978 2.542167
-0.097269 0.252809 2.510697
-0.082558 0.249980 2.482598
-0.068656 0.248967 2.472542
-0.054791 0.247621 2.459175
-0.041100 0.246435 2.447392
-0.027621 0.245995 2.443026
-0.014183 0.245428 2.437393
-0.000812 0.246413 2.447175
0.012658 0.247249 2.455479
0.026141 0.247333 2.456312
0.039652 0.247542 2.458387
0.053104 0.247368 2.456658
0.066334 0.246438 2.447423
0.079758 0.246423 2.447273
0.093265 0.246630 2.449328
0.106804 0.246860 2.451613
0.120706 0.247783 2.460781
0.135338 0.249867 2.481477
0.149863 0.251392 2.496619
0.165132 0.253805 2.520590
0.181946 0.258036 2.562600
0.319829 0.280289 2.783602
0.331641 0.277394 2.754848
0.344268 0.275402 2.735069
0.359631 0.275675 2.737776
-0.290351 0.294773 2.776163
-0.273276 0.292800 2.757581
-0.261112 0.296165 2.789270
-0.128210 0.273823 2.578853
-0.111917 0.268679 2.530415
-0.096814 0.265340 2.498968
-0.082274 0.262696 2.474063
-0.068262 0.261027 2.458343
-0.054641 0.260397 2.452412
-0.040983 0.259124 2.440422
-0.027571 0.258927 2.438568
-0.014206 0.259212 2.441252
-0.000810 0.259171 2.440863
0.012652 0.260588 2.454213
0.026160 0.261003 2.458115
0.039647 0.261000 2.458089
0.053008 0.260374 2.452196
0.066224 0.259438 2.443383
0.079576 0.259257 2.441672
0.092948 0.259186 2.441003
0.106406 0.259343 2.442481
0.120617 0.261092 2.458953
0.134683 0.262209 2.469476
0.149122 0.263780 2.484276
0.164413 0.266471 2.509616
0.180392 0.269772 2.540709
0.318625 0.294451 2.773127
0.331130 0.292059 2.750605
0.343292 0.289587 2.727320
0.359482 0.290577 2.736647
-0.286863 0.306282 2.742812
-0.270868 0.305218 2.733284
-0.258623 0.308502 2.762690
-0.127729 0.286892 2.569171
-0.111604 0.281773 2.523331
-0.096753 0.278876 2.497384
-0.082247 0.276181 2.473256
-0.068229 0.274383 2.457152
-0.054560 0.273451 2.448803
-0.040983 0.272515 2.440426
-0.027545 0.272055 2.436307
-0.014163 0.271789 2.433923
-0.000808 0.271866 2.434610
0.012596 0.272848 2.443404
0.026130 0.274181 2.455344
0.039678 0.274700 2.459994
0.052953 0.273547 2.449669
0.066102 0.272342 2.438872
0.079465 0.272275 2.438274
0.092819 0.272203 2.437625
0.106353 0.272609 2.441261
0.120379 0.274044 2.454117
0.134197 0.274764 2.460561
0.148603 0.276446 2.475628
0.163702 0.279029 2.498757
0.180227 0.283455 2.538395
0.318638 0.309680 2.773244
0.332546 0.308466 2.762369
0.344384 0.305520 2.735992
0.359609 0.305701 2.737612
-0.286702 0.321152 2.741278
-0.271351 0.320786 2.738150
-0.259476 0.324728 2.771801
-0.249337 0.331468 2.829327
-0.127472 0.300384 2.564004
-0.111366 0.294989 2.517959
-0.096627 0.292197 2.494119
-0.082057 0.289082 2.467531
-0.068122 0.287415 2.453308
-0.054538 0.286772 2.447819
-0.041014 0.286122 2.442268
-0.027542 0.285389 2.436010
-0.014158 0.285041 2.433043
-0.000811 0.286217 2.443083
0.012627 0.286953 2.449364
0.026134 0.287699 2.455726
0.039659 0.288057 2.458783
0.053016 0.287329 2.452573
0.066114 0.285776 2.439314
0.079319 0.285129 2.433796
0.092831 0.285612 2.437917
0.106214 0.285628 2.438052
0.119912 0.286395 2.444598
0.133886 0.287598 2.454868
0.148181 0.289208 2.468605
0.163097 0.291659 2.489527
0.179875 0.296803 2.533438
0.307515 0.329281 2.810659
0.322048 0.328373 2.802915
0.335775 0.326766 2.789192
0.346122 0.322151 2.749805
0.360145 0.321201 2.741694
-0.288603 0.338423 2.759452
-0.274391 0.339573 2.768827
-0.266488 0.349124 2.846706
-0.250831 0.349072 2.846287
-0.145280 0.322760 2.631735
-0.127241 0.313883 2.559357
-0.110990 0.307761 2.509444
-0.096183 0.304478 2.482669
-0.081812 0.301719 2.460176
-0.068131 0.300915 2.453619
-0.054484 0.299902 2.445360
-0.040917 0.298817 2.436511
-0.027499 0.298291 2.432221
-0.014172 0.298693 2.435499
-0.000812 0.300108 2.447038
0.012651 0.300974 2.454098
0.026201 0.301940 2.461977
0.039659 0.301553 2.458819
0.052961 0.300473 2.450017
0.066216 0.299622 2.443077
0.079420 0.298865 2.436905
0.092814 0.298937 2.437494
0.106398 0.299525 2.442286
0.120045 0.300140 2.447298
0.133636 0.300506 2.450285
0.148138 0.302665 2.467889
0.163560 0.306185 2.496588
0.178738 0.308740 2.517426
0.306197 0.343226 2.798615
0.338197 0.344537 2.809304
0.346954 0.338051 2.756416
0.361281 0.337305 2.750340
-0.291113 0.356639 2.783449
-0.275837 0.356636 2.783423
-0.273453 0.374277 2.921107
-0.250216 0.363795 2.839303
-0.125742 0.324063 2.529201
-0.110353 0.319686 2.495043
-0.095988 0.317455 2.477630
-0.081798 0.315165 2.459755
-0.067975 0.313661 2.448017
-0.054356 0.312587 2.439638
-0.040903 0.312079 2.435673
-0.027534 0.312036 2.435335
-0.014199 0.312639 2.440047
-0.000811 0.313167 2.444167
0.012643 0.314241 2.452543
0.026212 0.315585 2.463035
0.039768 0.315905 2.465537
0.053029 0.314320 2.453165
0.066333 0.313582 2.447404
0.079660 0.313180 2.444266
0.092899 0.312598 2.439720
0.106306 0.312654 2.440165
0.119975 0.313385 2.445864
0.133592 0.313848 2.449476
0.147745 0.315368 2.461340
0.162864 0.318523 2.485967
0.179295 0.323558 2.525261
0.197606 0.331021 2.583510
0.306935 0.359446 2.805356
0.319882 0.356719 2.784071
0.334140 0.355634 2.775604
0.347471 0.353701 2.760517
0.362459 0.353546 2.759309
-0.275865 0.371946 2.783702
-0.272057 0.388312 2.906190
-0.249610 0.378457 2.832432
-0.142493 0.344894 2.581244
-0.125415 0.337061 2.522621
-0.110470 0.333729 2.497684
-0.095944 0.330900 2.476507
-0.082006 0.329496 2.465998
-0.068022 0.327315 2.449678
-0.054428 0.326406 2.442872
-0.041017 0.326348 2.442442
-0.027619 0.326393 2.442776
-0.014222 0.326557 2.444002
-0.000814 0.327810 2.453383
0.012687 0.328834 2.461044
0.026257 0.329658 2.467212
0.039804 0.329733 2.467777
0.053186 0.328751 2.460426
0.066575 0.328200 2.456300
0.079808 0.327196 2.448790
0.093049 0.326511 2.443663
0.106455 0.326503 2.443603
0.120007 0.326893 2.446516
0.133655 0.327442 2.450626
0.148015 0.329475 2.465844
0.162765 0.331962 2.484456
0.178371 0.335676 2.512250
0.195454 0.341438 2.555375
0.320995 0.373289 2.793755
0.333040 0.369643 2.766467
0.347752 0.369147 2.762754
-0.278176 0.390464 2.807022
-0.263471 0.391500 2.814470
-0.140864 0.354955 2.551746
-0.124948 0.349597 2.513233
-0.110369 0.347119 2.495417
-0.095813 0.344017 2.473115
-0.081822 0.342256 2.460457
-0.068040 0.340850 2.450349
-0.054382 0.339520 2.440787
-0.041007 0.339670 2.441866
-0.027670 0.340432 2.447343
-0.014235 0.340279 2.446246
-0.000817 0.342138 2.459610
0.012742 0.343831 2.471782
0.026402 0.345094 2.480859
0.039901 0.344116 2.473829
0.053311 0.343061 2.466243
0.066769 0.342675 2.463468
0.080015 0.341517 2.455147
0.093176 0.340382 2.446980
0.106543 0.340193 2.445622
0.120122 0.340645 2.448877
0.133681 0.340955 2.451102
0.148131 0.343274 2.467773
0.162731 0.345521 2.483929
0.178248 0.349221 2.510524
0.193735 0.352333 2.532896
-0.139859 0.366323 2.533531
-0.124368 0.361702 2.501572
-0.110083 0.359877 2.488950
-0.095759 0.357386 2.471727
-0.081687 0.355173 2.456421
-0.068199 0.355120 2.456052
-0.054527 0.353858 2.447326
-0.041194 0.354682 2.453024
-0.027813 0.355690 2.459995
-0.014294 0.355165 2.456363
-0.000820 0.357212 2.470517
0.012796 0.358886 2.482095
0.026574 0.361042 2.497012
0.040094 0.359415 2.485755
0.053543 0.358141 2.476945
0.066788 0.356293 2.464164
0.080180 0.355722 2.460217
0.093286 0.354226 2.449867
0.106692 0.354105 2.449034
0.120324 0.354678 2.452993
0.134272 0.355970 2.461929
0.148446 0.357573 2.473021
0.162797 0.359298 2.484951
0.177353 0.361172 2.497912
0.192969 0.364782 2.522878
0.210427 0.371159 2.566980
-0.139626 0.379592 2.529315
-0.124295 0.375209 2.500111
-0.109848 0.372735 2.483627
-0.095885 0.371439 2.474990
-0.082132 0.370658 2.469790
-0.068253 0.368892 2.458021
-0.054666 0.368219 2.453533
-0.041330 0.369351 2.461081
-0.027919 0.370594 2.469362
-0.014400 0.371374 2.474560
-0.000826 0.373393 2.488014
0.012869 0.374631 2.496261
0.026716 0.376746 2.510351
0.040296 0.374940 2.498319
0.053869 0.374000 2.492058
0.067232 0.372277 2.480576
0.080403 0.370248 2.467055
0.093587 0.368858 2.457792
0.106968 0.368495 2.455374
0.120553 0.368837 2.457656
0.134657 0.370540 2.469001
0.148517 0.371321 2.474205
0.163000 0.373398 2.488043
0.177531 0.375255 2.500417
0.192619 0.377939 2.518303
0.209884 0.384250 2.560355
-0.138774 0.391069 2.513881
-0.123950 0.387847 2.493169
-0.109904 0.386560 2.484892
-0.095795 0.384655 2.472647
-0.082058 0.383864 2.467562
-0.068338 0.382855 2.461079
-0.054863 0.383060 2.462396
-0.041440 0.383873 2.467622
-0.027982 0.385014 2.474958
-0.014451 0.386327 2.483396
-0.000831 0.389440 2.503406
0.013027 0.393106 2.526975
0.027018 0.394933 2.538715
0.040449 0.390122 2.507789
0.054004 0.388646 2.498302
0.067505 0.387450 2.490612
0.080728 0.385338 2.477036
0.094127 0.384548 2.471958
0.107561 0.384084 2.468979
0.121061 0.383934 2.468016
0.134844 0.384619 2.472418
0.148842 0.385738 2.479610
0.162713 0.386367 2.483655
0.176966 0.387737 2.492459
0.192428 0.391370 2.515812
0.208192 0.395088 2.539715
-0.156156 0.414384 2.573000
-0.138535 0.404165 2.509547
-0.123797 0.401032 2.490091
-0.109529 0.398831 2.476425
-0.095777 0.398149 2.472193
-0.082068 0.397452 2.467861
-0.068475 0.397156 2.466022
-0.054877 0.396669 2.463003
-0.041455 0.397563 2.468553
-0.028018 0.399100 2.478098
-0.014459 0.400171 2.484744
-0.000831 0.403165 2.503334
0.013021 0.406773 2.525738
0.027245 0.412302 2.560071
0.040706 0.406451 2.523739
0.054293 0.404505 2.511658
0.067652 0.401992 2.496050
0.081052 0.400529 2.486967
0.094391 0.399231 2.478906
0.107716 0.398204 2.472529
0.121179 0.397863 2.470413
0.134781 0.398002 2.471275
0.148634 0.398787 2.476155
0.162585 0.399682 2.481707
0.176708 0.400828 2.488827
0.192033 0.404342 2.510644
0.207665 0.407987 2.533278
-0.155583 0.426929 2.563552
-0.138484 0.417782 2.508625
-0.123920 0.415105 2.492551
-0.109488 0.412262 2.475481
-0.095900 0.412241 2.475353
-0.082066 0.410985 2.467809
-0.068536 0.411050 2.468202
-0.054993 0.411054 2.468224
-0.041537 0.411920 2.473427
-0.028030 0.412877 2.479170
-0.014468 0.414056 2.486255
-0.000831 0.416706 2.502164
0.013005 0.420120 2.522662
0.027069 0.423590 2.543499
0.040637 0.419581 2.519430
0.054266 0.418081 2.510421
0.067631 0.415561 2.495287
0.081200 0.414930 2.491501
0.094631 0.413882 2.485210
0.108038 0.413002 2.479920
0.121474 0.412420 2.476431
0.134940 0.412045 2.474178
0.148817 0.412880 2.479191
0.162853 0.413980 2.485795
0.176937 0.415022 2.492054
0.191766 0.417536 2.507150
0.208164 0.422902 2.539368
-0.155710 0.441356 2.565647
-0.138878 0.432776 2.515771
-0.123879 0.428643 2.491744
-0.109628 0.426392 2.478660
-0.095819 0.425467 2.473283
-0.082170 0.425061 2.470924
-0.068644 0.425262 2.472090
-0.055002 0.424669 2.468640
-0.041612 0.426257 2.477873
-0.028060 0.426930 2.481788
-0.014480 0.428048 2.488286
-0.000831 0.430638 2.503339
0.012987 0.433379 2.519275
0.027023 0.436815 2.539251
0.040669 0.433751 2.521436
0.054291 0.432051 2.511552
0.067761 0.430074 2.500060
0.081223 0.428724 2.492217
0.094748 0.428048 2.488287
0.108189 0.427208 2.483403
0.121462 0.425965 2.476178
0.135187 0.426402 2.478717
0.149026 0.427084 2.482679
0.163032 0.428090 2.488526
0.176817 0.428406 2.490366
0.191639 0.431008 2.505491
0.208466 0.437470 2.543055
-0.155270 0.454148 2.558403
-0.138418 0.445100 2.507430
-0.123704 0.441690 2.488219
-0.109623 0.439970 2.478531
-0.095635 0.438194 2.468527
-0.081997 0.437699 2.465738
-0.068527 0.438079 2.467877
-0.055094 0.438947 2.472769
-0.041595 0.439672 2.476853
-0.028045 0.440313 2.480464
-0.014484 0.441847 2.489107
-0.000831 0.444377 2.503359
0.013030 0.448664 2.527508
0.027288 0.455162 2.564115
0.040902 0.450151 2.535885
0.054390 0.446645 2.516132
0.067922 0.444852 2.506033
0.081182 0.442178 2.490971
0.094665 0.441315 2.486105
0.108292 0.441254 2.485766
0.121827 0.440876 2.483634
0.135317 0.440427 2.481103
0.149030 0.440719 2.482747
0.162974 0.441588 2.487646
0.176772 0.441958 2.489730
0.191697 0.444891 2.506253
0.208323 0.451115 2.541313
-0.156550 0.472047 2.579498
-0.138466 0.459020 2.508310
-0.123879 0.455986 2.491732
-0.109785 0.454244 2.482212
-0.095941 0.453185 2.476428
-0.082015 0.451327 2.466273
-0.068459 0.451175 2.465445
-0.055056 0.452202 2.471056
-0.041593 0.453248 2.476772
-0.028031 0.453706 2.479274
-0.014468 0.454977 2.486220
-0.000831 0.458191 2.503782
0.013070 0.463958 2.535293
0.040925 0.464322 2.537285
0.054497 0.461356 2.521077
0.067995 0.459089 2.508691
0.081199 0.455937 2.491466
0.094784 0.455524 2.489210
0.108478 0.455675 2.490035
0.122093 0.455494 2.489045
0.135480 0.454586 2.484081
0.149355 0.455332 2.488161
0.163452 0.456574 2.494945
0.177246 0.456841 2.496408
0.192497 0.460557 2.516710
0.208424 0.465283 2.542538
-0.156160 0.484989 2.573071
-0.139005 0.474621 2.518059
-0.124419 0.471704 2.502586
-0.109850 0.468138 2.483667
-0.096049 0.467298 2.479211
-0.082145 0.465597 2.470185
-0.068458 0.464696 2.465406
-0.054939 0.464773 2.465812
-0.041580 0.466686 2.475964
-0.028056 0.467732 2.481512
-0.014478 0.468947 2.487957
-0.000833 0.472771 2.508245
0.013085 0.478437 2.538308
0.054652 0.476541 2.528248
0.068089 0.473515 2.512192
0.081429 0.470943 2.498546
0.094817 0.469348 2.490087
0.108409 0.469041 2.488458
0.122039 0.468944 2.487945
0.135595 0.468615 2.486198
0.149318 0.468870 2.487550
0.163370 0.470028 2.493696
0.177561 0.471376 2.500847
0.192890 0.475334 2.521847
0.209235 0.481099 2.552429
-0.156851 0.501315 2.584449
-0.139613 0.490574 2.529075
-0.124310 0.485013 2.500403
-0.109752 0.481336 2.481451
-0.095776 0.479537 2.472174
-0.082170 0.479296 2.470934
-0.068476 0.478346 2.466033
-0.054891 0.477881 2.463637
-0.041464 0.478935 2.469069
-0.027983 0.480085 2.474999
-0.014495 0.483165 2.490877
-0.000836 0.488313 2.517419
0.054808 0.491819 2.535495
0.068074 0.487191 2.511632
0.081584 0.485571 2.503281
0.095042 0.484156 2.495988
0.108329 0.482336 2.486604
0.121977 0.482354 2.486695
0.135547 0.482087 2.485318
0.148921 0.481236 2.480935
0.162957 0.482487 2.487382
0.177505 0.484946 2.500060
0.192637 0.488531 2.518543
0.209820 0.496488 2.559565
-0.139742 0.504920 2.531425
-0.124053 0.497701 2.495230
-0.109666 0.494566 2.479511
-0.095700 0.492709 2.470202
-0.082128 0.492605 2.469681
-0.068680 0.493345 2.473393
-0.054921 0.491665 2.464968
-0.041553 0.493547 2.474403
-0.028073 0.495255 2.482969
-0.014553 0.498843 2.500956
-0.000839 0.504237 2.528001
0.054773 0.505404 2.533852
0.068196 0.501869 2.516130
0.081701 0.500027 2.506893
0.095158 0.498463 2.499053
0.108471 0.496630 2.489863
0.121697 0.494856 2.480970
0.135470 0.495443 2.483910
0.149184 0.495722 2.485311
0.162980 0.496206 2.487737
0.177410 0.498395 2.498709
0.192617 0.502298 2.518278
0.209387 0.509481 2.554290
-0.157465 0.531751 2.594566
-0.139748 0.518830 2.531520
-0.124215 0.512062 2.498499
-0.109698 0.508320 2.480241
-0.095762 0.506590 2.471797
-0.082047 0.505652 2.467221
-0.068503 0.505607 2.467003
-0.054961 0.505566 2.466801
-0.041582 0.507477 2.476125
-0.028170 0.510636 2.491539
-0.014621 0.514967 2.512670
-0.000843 0.520203 2.538222
0.055058 0.522013 2.547051
0.068304 0.516493 2.520118
0.081880 0.514909 2.512388
0.095199 0.512394 2.500118
0.108521 0.510530 2.491021
0.121707 0.508514 2.481185
0.135537 0.509324 2.485137
0.149250 0.509586 2.486416
0.162927 0.509692 2.486932
0.177816 0.513278 2.504429
0.193127 0.517484 2.524952
0.210007 0.525046 2.561848
-0.140077 0.533977 2.537492
-0.124476 0.526877 2.503749
-0.109762 0.522232 2.481677
-0.095782 0.520261 2.472311
-0.081963 0.518660 2.464704
-0.068549 0.519498 2.468687
-0.054937 0.518875 2.465723
-0.041575 0.520972 2.475689
-0.028165 0.524225 2.491148
-0.014671 0.530532 2.521120
-0.000847 0.536928 2.551512
0.055748 0.542701 2.578946
0.068570 0.532382 2.529912
0.082003 0.529484 2.516140
0.095269 0.526498 2.501949
0.108505 0.524120 2.490650
0.121776 0.522425 2.482595
0.135495 0.522795 2.484354
0.149178 0.522976 2.485212
0.163090 0.523862 2.489424
0.178125 0.527936 2.508782
0.193570 0.532557 2.530743
0.211085 0.541870 2.574998
-0.140657 0.550166 2.547985
-0.124622 0.541249 2.506683
-0.109998 0.537002 2.487014
-0.095955 0.534793 2.476784
-0.082110 0.533137 2.469117
-0.068544 0.533006 2.468511
-0.055058 0.533571 2.471128
-0.041725 0.536481 2.484603
-0.028349 0.541408 2.507422
-0.014716 0.546064 2.528986
-0.000851 0.553673 2.564225
0.068909 0.548966 2.542426
0.082172 0.544414 2.521344
0.095475 0.541394 2.507354
0.108680 0.538653 2.494662
0.121888 0.536539 2.484872
0.135434 0.536186 2.483237
0.149291 0.537017 2.487088
0.163475 0.538789 2.495292
0.178007 0.541344 2.507124
0.193867 0.547280 2.534616
0.210893 0.555494 2.572659
-0.140463 0.563370 2.544471
-0.124562 0.554733 2.505465
-0.109829 0.549802 2.483193
-0.095811 0.547558 2.473060
-0.082109 0.546682 2.469099
-0.068664 0.547502 2.472804
-0.055169 0.548237 2.476125
-0.041809 0.551231 2.489649
-0.028438 0.556897 2.515235
-0.014756 0.561435 2.535734
0.069424 0.567122 2.561416
0.082638 0.561414 2.535640
0.095533 0.555491 2.508889
0.108701 0.552449 2.495146
0.122127 0.551252 2.489742
0.135674 0.550786 2.487638
0.149081 0.549891 2.483593
0.163187 0.551508 2.490897
0.177909 0.554795 2.505743
0.194227 0.562229 2.539321
0.212243 0.573256 2.589124
-0.141564 0.581857 2.564416
-0.124641 0.568842 2.507057
-0.109946 0.564027 2.485834
-0.095855 0.561386 2.474195
-0.082026 0.559662 2.466595
-0.068506 0.559779 2.467113
-0.055298 0.563138 2.481915
-0.041863 0.565615 2.492832
-0.028448 0.570907 2.516157
-0.014832 0.578317 2.548813
0.083021 0.577990 2.547375
0.095800 0.570849 2.515899
0.108813 0.566726 2.497731
0.122207 0.565284 2.491376
0.135579 0.564043 2.485904
0.149356 0.564557 2.488173
0.163374 0.565825 2.493757
0.178640 0.570879 2.516033
0.194629 0.577355 2.544577
0.213246 0.590239 2.601359
-0.141691 0.596463 2.566717
-0.124722 0.582978 2.508689
-0.109907 0.577463 2.484954
-0.095921 0.575361 2.475913
-0.082098 0.573700 2.468765
-0.068563 0.573796 2.469177
-0.055242 0.576166 2.479376
-0.041873 0.579437 2.493452
-0.028489 0.585553 2.519768
0.083956 0.598634 2.576061
0.096223 0.587237 2.527015
0.109071 0.581808 2.503652
0.122039 0.578159 2.487950
0.135718 0.578275 2.488449
0.149515 0.578829 2.490833
0.163620 0.580378 2.497502
0.178619 0.584619 2.515749
0.195434 0.593766 2.555111
0.213731 0.605888 2.607275
-0.178575 0.699910 2.942397
-0.124807 0.597149 2.510394
-0.109888 0.590998 2.484535
-0.096064 0.589822 2.479590
-0.082257 0.588382 2.473536
-0.068636 0.587968 2.471798
-0.055318 0.590592 2.482829
-0.042012 0.595088 2.501728
-0.028753 0.604944 2.543162
0.096511 0.602900 2.534572
0.109319 0.596898 2.509341
0.122442 0.593767 2.496174
0.135801 0.592290 2.489965
0.149601 0.592835 2.492258
0.164031 0.595575 2.503778
0.178526 0.598109 2.514427
0.195052 0.606598 2.550115
-0.178559 0.715994 2.942146
-0.124685 0.610327 2.507941
-0.110053 0.605537 2.488260
-0.095979 0.602897 2.477410
-0.082332 0.602504 2.475797
-0.068750 0.602534 2.475920
-0.055301 0.604023 2.482036
-0.042019 0.608908 2.502109
-0.028901 0.622083 2.556250
0.096687 0.617932 2.539190
0.109491 0.611629 2.513292
0.122667 0.608578 2.500753
0.135849 0.606169 2.490855
0.149671 0.606796 2.493432
0.164020 0.609273 2.503608
0.178888 0.613148 2.519535
0.196006 0.623626 2.562587
-0.161790 0.729319 2.930816
-0.124997 0.625653 2.514230
-0.109986 0.618815 2.486750
-0.095900 0.615984 2.475375
-0.082196 0.615073 2.471713
-0.068758 0.616190 2.476203
-0.055400 0.618755 2.486509
-0.042093 0.623742 2.506547
-0.028855 0.635092 2.552160
0.097260 0.635611 2.554247
0.109783 0.627085 2.519982
0.122763 0.622784 2.502702
0.136233 0.621587 2.497889
0.149632 0.620313 2.492770
0.164122 0.623397 2.505161
0.178796 0.626651 2.518240
0.194981 0.634353 2.549190
-0.162142 0.747024 2.937200
-0.125137 0.640163 2.517035
-0.110162 0.633469 2.490717
-0.096104 0.630904 2.480634
-0.082207 0.628722 2.472051
-0.068758 0.629779 2.476209
-0.055494 0.633467 2.490710
-0.042187 0.638910 2.512112
0.097714 0.652657 2.566160
0.109923 0.641729 2.523196
0.122843 0.636932 2.504332
0.135957 0.634007 2.492831
0.149415 0.633075 2.489168
0.163836 0.636035 2.500805
0.178763 0.640349 2.517769
0.194238 0.645868 2.539470
-0.161427 0.759771 2.924230
-0.124869 0.652576 2.511655
-0.110124 0.646914 2.489862
-0.095977 0.643665 2.477360
-0.082152 0.641855 2.470393
-0.068751 0.643295 2.475935
-0.055618 0.648575 2.496256
-0.042214 0.653116 2.513732
0.097167 0.663008 2.551805
0.109704 0.654268 2.518168
0.122954 0.651265 2.506610
0.136124 0.648482 2.495897
0.149757 0.648211 2.494853
0.163874 0.649907 2.501383
0.178630 0.653677 2.515893
0.194191 0.659642 2.538851
-0.124356 0.663620 2.501334
-0.109811 0.658698 2.482785
-0.095781 0.655912 2.472283
-0.082309 0.656664 2.475118
-0.069025 0.659504 2.485821
-0.055764 0.664020 2.502844
-0.042346 0.668994 2.521592
0.110168 0.670911 2.528816
0.123273 0.666742 2.513103
0.136091 0.662018 2.495298
0.149699 0.661644 2.493886
0.163646 0.662710 2.497906
0.178361 0.666480 2.512116
0.193673 0.671777 2.532081
-0.140911 0.691227 2.552599
-0.124128 0.676103 2.496749
-0.109387 0.669728 2.473206
-0.095710 0.668982 2.470454
-0.082196 0.669321 2.471704
-0.068978 0.672680 2.484107
-0.055776 0.677893 2.503359
-0.042375 0.683306 2.523350
0.110333 0.685817 2.532623
0.123376 0.681101 2.515208
0.136110 0.675801 2.495634
0.149504 0.674450 2.490646
0.163255 0.674799 2.491933
0.177829 0.678235 2.504622
0.193031 0.683397 2.523685
-0.178477 0.812481 2.940785
-0.123771 0.687820 2.489571
-0.109293 0.682711 2.471081
-0.095642 0.682056 2.468710
-0.082238 0.683238 2.472986
-0.069032 0.686855 2.486080
-0.055840 0.692420 2.506222
-0.042456 0.698474 2.528133
0.110827 0.702843 2.543948
0.123835 0.697490 2.524572
0.136706 0.692515 2.506565
0.149912 0.689993 2.497436
0.163088 0.687769 2.489388
0.177130 0.689257 2.494774
0.192877 0.696689 2.521673
-0.178277 0.827692 2.937499
-0.139422 0.711639 2.525623
-0.123283 0.698711 2.479743
-0.109011 0.694476 2.464713
-0.095333 0.693355 2.460733
-0.082198 0.696464 2.471769
-0.069197 0.702173 2.492028
-0.055954 0.707618 2.511353
-0.042715 0.716703 2.543597
0.111235 0.719442 2.553317
0.123990 0.712232 2.527728
0.136816 0.706838 2.508586
0.149547 0.701982 2.491352
0.162815 0.700254 2.485217
0.176504 0.700461 2.485952
0.191853 0.706756 2.508294
0.208619 0.717076 2.544919
-0.210774 0.844853 2.941130
-0.194739 0.845298 2.942679
-0.178011 0.842550 2.933110
-0.137726 0.716672 2.494900
-0.122577 0.708242 2.465554
-0.108574 0.705158 2.454818
-0.095081 0.704987 2.454222
-0.081951 0.707900 2.464362
-0.069307 0.716980 2.495971
-0.056177 0.724274 2.521367
0.124491 0.729035 2.537939
0.136796 0.720498 2.508222
0.149194 0.713966 2.485482
0.162557 0.712758 2.481274
0.176019 0.712142 2.479130
0.190585 0.715757 2.491715
