# .PCD v0.7 - Point Cloud Data file format
VERSION 0.7
FIELDS x y z
SIZE 4 4 4
TYPE F F F
COUNT 1 1 1
WIDTH 1719
HEIGHT 1
VIEWPOINT 0 0 0 1 0 0 0
POINTS 1719
DATA ascii
-0.090532 -0.167820 1.639981
-0.080902 -0.166521 1.627292
-0.071541 -0.165522 1.617525
-0.062371 -0.164743 1.609913
-0.053489 -0.164596 1.608480
-0.044674 -0.164636 1.608872
-0.035848 -0.164643 1.608934
-0.026962 -0.164295 1.605542
-0.018015 -0.163047 1.593343
-0.009126 -0.160482 1.568272
-0.000516 -0.159042 1.554204
0.007967 -0.158138 1.545368
0.016412 -0.157806 1.542128
0.024816 -0.157440 1.538547
0.033212 -0.157220 1.536403
0.041639 -0.157208 1.536284
0.049990 -0.156963 1.533886
0.058423 -0.157005 1.534295
0.066933 -0.157220 1.536396
0.075596 -0.157706 1.541147
0.084343 -0.158251 1.546476
0.093153 -0.158803 1.551864
0.104130 -0.162649 1.589447
0.115438 -0.166376 1.625871
0.127469 -0.170537 1.666533
-0.112512 -0.164649 1.700163
-0.100274 -0.160007 1.652226
-0.090375 -0.158546 1.637138
-0.080836 -0.157463 1.625955
-0.071672 -0.156931 1.620469
-0.062540 -0.156332 1.614276
-0.053645 -0.156222 1.613148
-0.044766 -0.156128 1.612179
-0.035932 -0.156179 1.612703
-0.027036 -0.155911 1.609932
-0.018054 -0.154644 1.596853
-0.009128 -0.151911 1.568627
-0.000516 -0.150381 1.552828
0.007984 -0.149981 1.548703
0.016440 -0.149603 1.544798
0.024838 -0.149131 1.539922
0.033238 -0.148907 1.537607
0.041612 -0.148683 1.535302
0.049957 -0.148448 1.532873
0.058344 -0.148386 1.532232
0.066821 -0.148541 1.533833
0.075421 -0.148903 1.537569
0.084146 -0.149414 1.542850
0.093228 -0.150409 1.553118
0.104702 -0.154773 1.598185
0.115483 -0.157516 1.626508
0.127717 -0.161707 1.669779
-0.110610 -0.152695 1.671424
-0.099889 -0.150361 1.645876
-0.090266 -0.149381 1.635156
-0.080986 -0.148817 1.628983
-0.071625 -0.147944 1.619421
-0.062618 -0.147657 1.616286
-0.053714 -0.147561 1.615228
-0.044864 -0.147604 1.615705
-0.036011 -0.147654 1.616245
-0.027084 -0.147337 1.612776
-0.018087 -0.146148 1.599759
-0.009119 -0.143168 1.567139
-0.000516 -0.141942 1.553729
0.007982 -0.141448 1.548316
0.016447 -0.141183 1.545415
0.024838 -0.140680 1.539909
0.033188 -0.140261 1.535324
0.041514 -0.139928 1.531678
0.049811 -0.139626 1.528376
0.058191 -0.139613 1.528226
0.066702 -0.139874 1.531086
0.075297 -0.140235 1.535037
0.084169 -0.140988 1.543279
0.093384 -0.142125 1.555723
0.105468 -0.147072 1.609876
0.115837 -0.149047 1.631498
0.127459 -0.152236 1.666406
-0.109876 -0.142570 1.660327
-0.099440 -0.140695 1.638490
-0.090058 -0.140087 1.631403
-0.080968 -0.139847 1.628609
-0.071778 -0.139355 1.622884
-0.062788 -0.139166 1.620681
-0.053812 -0.138950 1.618168
-0.044927 -0.138932 1.617959
-0.036002 -0.138753 1.615873
-0.027075 -0.138442 1.612247
-0.018114 -0.137572 1.602121
-0.009097 -0.134242 1.563336
-0.000515 -0.133114 1.550203
0.007962 -0.132625 1.544511
0.016406 -0.132376 1.541607
0.024780 -0.131924 1.536346
0.033127 -0.131593 1.532489
0.041426 -0.131245 1.528437
0.049803 -0.131219 1.528127
0.058177 -0.131193 1.527833
0.066676 -0.131422 1.530501
0.075168 -0.131587 1.532422
0.084012 -0.132273 1.540403
0.093704 -0.134046 1.561058
0.105871 -0.138766 1.616022
0.116978 -0.141475 1.647564
0.130195 -0.146164 1.702176
-0.109687 -0.133231 1.657472
-0.099670 -0.132008 1.642267
-0.090267 -0.131439 1.635186
-0.081047 -0.131039 1.630208
-0.071917 -0.130702 1.626009
-0.062901 -0.130509 1.623608
-0.053861 -0.130191 1.619659
-0.044912 -0.130013 1.617438
-0.036038 -0.130016 1.617482
-0.027112 -0.129770 1.614424
-0.018139 -0.128957 1.604306
-0.009099 -0.125685 1.563598
-0.000514 -0.124527 1.549193
0.007958 -0.124082 1.543664
0.016353 -0.123517 1.536635
0.024692 -0.123052 1.530844
0.033012 -0.122756 1.527159
0.041333 -0.122583 1.525004
0.049624 -0.122392 1.522631
0.057985 -0.122405 1.522795
0.066539 -0.122771 1.527344
0.075182 -0.123201 1.532701
0.084053 -0.123881 1.541159
0.094158 -0.126088 1.568613
0.106719 -0.130939 1.628966
0.117384 -0.132894 1.653283
-0.110239 -0.124761 1.665816
-0.100047 -0.123463 1.648486
-0.090392 -0.122635 1.637438
-0.081170 -0.122279 1.632677
-0.072047 -0.122000 1.628949
-0.063054 -0.121894 1.627540
-0.053912 -0.121417 1.621173
-0.044965 -0.121281 1.619350
-0.036027 -0.121102 1.616960
-0.027100 -0.120861 1.613747
-0.018116 -0.120005 1.602322
-0.009082 -0.116888 1.560700
-0.000513 -0.115811 1.546313
0.007933 -0.115250 1.538830
0.016325 -0.114884 1.533947
0.024674 -0.114573 1.529788
0.033033 -0.114449 1.528127
0.041304 -0.114134 1.523922
0.049581 -0.113940 1.521335
0.057906 -0.113894 1.520723
0.066425 -0.114194 1.524731
0.075117 -0.114691 1.531367
0.084173 -0.115589 1.543357
0.094517 -0.117929 1.574593
0.107562 -0.122965 1.641833
0.118265 -0.124752 1.665699
-0.110650 -0.116051 1.672028
-0.100274 -0.114677 1.652229
-0.090677 -0.114010 1.642615
-0.081417 -0.113664 1.637635
-0.072254 -0.113387 1.633641
-0.063121 -0.113085 1.629288
-0.053928 -0.112555 1.621659
-0.045025 -0.112545 1.621509
-0.036015 -0.112194 1.616459
-0.027100 -0.112004 1.613716
-0.018122 -0.111249 1.602834
-0.009084 -0.108347 1.561020
-0.000513 -0.107167 1.544024
0.007926 -0.106719 1.537574
0.016305 -0.106339 1.532092
0.024668 -0.106149 1.529364
0.032970 -0.105863 1.525239
0.041265 -0.105672 1.522492
0.049534 -0.105491 1.519872
0.057920 -0.105576 1.521107
0.066288 -0.105609 1.521581
0.074945 -0.106045 1.527865
0.084275 -0.107250 1.545224
0.095192 -0.110070 1.585844
0.108463 -0.114911 1.655592
0.121007 -0.118292 1.704308
-0.111553 -0.107749 1.685676
-0.100833 -0.106200 1.661433
-0.091025 -0.105399 1.648915
-0.081669 -0.105003 1.642711
-0.072371 -0.104592 1.636279
-0.063177 -0.104237 1.630727
-0.054071 -0.103933 1.625977
-0.045121 -0.103868 1.624962
-0.036022 -0.103342 1.616734
-0.027119 -0.103224 1.614875
-0.018148 -0.102603 1.605169
-0.009072 -0.099656 1.559065
-0.000511 -0.098428 1.539847
0.007910 -0.098075 1.534329
0.016295 -0.097875 1.531196
0.024619 -0.097563 1.526320
0.032925 -0.097360 1.523148
0.041237 -0.097253 1.521462
0.049503 -0.097090 1.518924
0.057920 -0.097229 1.521090
0.066273 -0.097239 1.521255
0.074934 -0.097647 1.527635
0.084131 -0.098602 1.542577
0.096078 -0.102311 1.600597
0.108802 -0.106157 1.660761
-0.112361 -0.099213 1.697880
-0.101098 -0.097338 1.665804
-0.091333 -0.096678 1.654495
-0.081861 -0.096215 1.646573
-0.072340 -0.095573 1.635584
-0.063150 -0.095247 1.630014
-0.054071 -0.095010 1.625962
-0.045129 -0.094968 1.625234
-0.036096 -0.094666 1.620075
-0.027148 -0.094463 1.616587
-0.018140 -0.093751 1.604405
-0.009067 -0.091050 1.558193
-0.000512 -0.090066 1.541340
0.007907 -0.089631 1.533896
0.016261 -0.089282 1.527928
0.024575 -0.089031 1.523632
0.032878 -0.088876 1.520974
0.041185 -0.088792 1.519542
0.049478 -0.088712 1.518172
0.057820 -0.088730 1.518478
0.066320 -0.088955 1.522331
0.074913 -0.089241 1.527220
0.084295 -0.090314 1.545588
0.097303 -0.094721 1.621014
0.109736 -0.097877 1.675019
-0.112710 -0.090176 1.703156
-0.101420 -0.088479 1.671107
-0.091379 -0.087644 1.655332
-0.081827 -0.087144 1.645894
-0.072361 -0.086623 1.636060
-0.063130 -0.086276 1.629500
-0.054117 -0.086161 1.627337
-0.045076 -0.085949 1.623319
-0.036078 -0.085734 1.619268
-0.027132 -0.085543 1.615660
-0.018113 -0.084820 1.602007
-0.009031 -0.082172 1.551983
-0.000510 -0.081386 1.537149
0.007881 -0.080942 1.528753
0.016214 -0.080668 1.523586
0.024531 -0.080525 1.520887
0.032791 -0.080316 1.516936
0.041040 -0.080171 1.514202
0.049364 -0.080196 1.514664
0.057731 -0.080274 1.516139
0.066335 -0.080620 1.522678
0.075084 -0.081045 1.530707
0.084674 -0.082201 1.552540
0.098633 -0.086999 1.643160
0.110353 -0.089185 1.684435
-0.113012 -0.081047 1.707719
-0.101851 -0.079646 1.678211
-0.091470 -0.078638 1.656972
-0.081696 -0.077988 1.643257
-0.072327 -0.077609 1.635284
-0.063209 -0.077432 1.631541
-0.054082 -0.077183 1.626310
-0.045051 -0.076998 1.622416
-0.036071 -0.076834 1.618949
-0.027116 -0.076632 1.614696
-0.018100 -0.075977 1.600885
-0.009006 -0.073454 1.547733
-0.000509 -0.072768 1.533285
0.007866 -0.072412 1.525770
0.016182 -0.072162 1.520498
0.024496 -0.072078 1.518746
0.032735 -0.071871 1.514373
0.040985 -0.071765 1.512151
0.049260 -0.071734 1.511485
0.057653 -0.071857 1.514082
0.066248 -0.072170 1.520682
0.074937 -0.072504 1.527705
0.085117 -0.074067 1.560652
0.099598 -0.078746 1.659240
0.110856 -0.080306 1.692114
-0.112755 -0.071513 1.703831
-0.101399 -0.070125 1.670764
-0.091192 -0.069335 1.651930
-0.081583 -0.068875 1.640978
-0.072296 -0.068607 1.634577
-0.063179 -0.068446 1.630762
-0.054039 -0.068205 1.625001
-0.045030 -0.068065 1.621670
-0.036018 -0.067850 1.616558
-0.027121 -0.067784 1.614992
-0.018088 -0.067150 1.599869
-0.008980 -0.064771 1.543192
-0.000508 -0.064266 1.531154
0.007851 -0.063925 1.523038
0.016170 -0.063773 1.519411
0.024428 -0.063566 1.514490
0.032693 -0.063479 1.512410
0.041013 -0.063512 1.513204
0.049306 -0.063498 1.512873
0.057661 -0.063557 1.514282
0.066259 -0.063836 1.520916
0.075233 -0.064374 1.533729
0.086599 -0.066644 1.587831
0.100302 -0.070134 1.670966
0.111317 -0.071317 1.699145
-0.124939 -0.063607 1.743382
-0.111541 -0.061495 1.685484
-0.100663 -0.060515 1.658639
-0.090844 -0.060041 1.645639
-0.081528 -0.059831 1.639878
-0.072146 -0.059514 1.631192
-0.063029 -0.059357 1.626902
-0.053983 -0.059226 1.623307
-0.045037 -0.059176 1.621935
-0.036090 -0.059098 1.619798
-0.027159 -0.059006 1.617270
-0.018060 -0.058279 1.597350
-0.008963 -0.056195 1.540222
-0.000508 -0.055804 1.529504
0.007836 -0.055461 1.520117
0.016139 -0.055329 1.516483
0.024438 -0.055280 1.515136
0.032709 -0.055207 1.513137
0.040943 -0.055115 1.510614
0.049211 -0.055091 1.509964
0.057581 -0.055172 1.512190
0.066115 -0.055370 1.517619
0.075107 -0.055864 1.531165
0.087597 -0.058600 1.606131
0.100417 -0.061035 1.672879
0.111571 -0.062135 1.703031
-0.123381 -0.053367 1.721649
-0.110589 -0.051800 1.671101
-0.100340 -0.051249 1.653315
-0.090723 -0.050943 1.643447
-0.081268 -0.050670 1.634647
-0.072137 -0.050557 1.630985
-0.063094 -0.050482 1.628582
-0.053985 -0.050322 1.623395
-0.045032 -0.050271 1.621747
-0.036122 -0.050255 1.621245
-0.027153 -0.050120 1.616877
-0.018085 -0.049584 1.599595
-0.008964 -0.047753 1.540516
-0.000507 -0.047376 1.528373
0.007821 -0.047028 1.517126
0.016093 -0.046875 1.512202
0.024380 -0.046853 1.511510
0.032613 -0.046767 1.508706
0.040842 -0.046710 1.506878
0.049132 -0.046731 1.507550
0.057591 -0.046883 1.512459
0.066291 -0.047168 1.521652
0.075481 -0.047699 1.538803
0.088805 -0.050473 1.628287
0.100873 -0.052091 1.680490
0.112329 -0.053149 1.714590
-0.121775 -0.043349 1.699245
-0.109996 -0.042402 1.662140
-0.100081 -0.042068 1.649046
-0.090518 -0.041831 1.639732
-0.081224 -0.041679 1.633770
-0.072136 -0.041607 1.630979
-0.063045 -0.041514 1.627316
-0.054032 -0.041449 1.624787
-0.045005 -0.041347 1.620788
-0.036105 -0.041339 1.620475
-0.027130 -0.041212 1.615499
-0.018099 -0.040838 1.600812
-0.008991 -0.039415 1.545028
-0.000506 -0.038871 1.523709
0.007801 -0.038605 1.513289
0.016038 -0.038444 1.506980
0.024321 -0.038467 1.507884
0.032600 -0.038473 1.508132
0.040875 -0.038473 1.508098
0.049217 -0.038525 1.510156
0.057575 -0.038573 1.512029
0.066161 -0.038742 1.518670
0.075953 -0.039501 1.548420
0.090606 -0.042381 1.661298
0.101230 -0.043022 1.686425
0.112151 -0.043671 1.711880
-0.120584 -0.033692 1.682619
-0.109740 -0.033204 1.658270
-0.099890 -0.032957 1.645897
-0.090425 -0.032799 1.638044
-0.081220 -0.032712 1.633685
-0.072137 -0.032658 1.630996
-0.062981 -0.032552 1.625662
-0.054008 -0.032520 1.624069
-0.045042 -0.032481 1.622124
-0.036128 -0.032468 1.621495
-0.027157 -0.032381 1.617144
-0.018162 -0.032166 1.606418
-0.009035 -0.031089 1.552627
-0.000504 -0.030412 1.518824
0.007770 -0.030181 1.507273
0.015995 -0.030095 1.502958
0.024232 -0.030082 1.502323
0.032525 -0.030128 1.504624
0.040835 -0.030168 1.506638
0.049228 -0.030246 1.510501
0.057667 -0.030324 1.514439
0.066108 -0.030385 1.517463
0.076875 -0.031381 1.567216
0.091053 -0.033429 1.669491
0.101189 -0.033755 1.685748
0.112500 -0.034385 1.717202
-0.132930 -0.025046 1.722977
-0.120363 -0.024414 1.679535
-0.109573 -0.024069 1.655745
-0.099788 -0.023901 1.644228
-0.090440 -0.023815 1.638322
-0.081208 -0.023744 1.633439
-0.072039 -0.023677 1.628777
-0.063031 -0.023650 1.626963
-0.054068 -0.023635 1.625892
-0.045132 -0.023627 1.625336
-0.036170 -0.023599 1.623421
-0.027187 -0.023533 1.618922
-0.018190 -0.023387 1.608855
-0.009029 -0.022556 1.551673
-0.000501 -0.021943 1.509528
0.007751 -0.021857 1.503578
0.015949 -0.021786 1.498683
0.024142 -0.021758 1.496771
0.032493 -0.021850 1.503139
0.040784 -0.021874 1.504759
0.049066 -0.021885 1.505528
0.057568 -0.021977 1.511865
0.066322 -0.022130 1.522381
0.078100 -0.023145 1.592194
0.091537 -0.024398 1.678381
0.101865 -0.024669 1.697016
0.113880 -0.025268 1.738266
-0.132337 -0.015522 1.715282
-0.120594 -0.015228 1.682763
-0.109816 -0.015017 1.659418
-0.099823 -0.014884 1.644797
-0.090389 -0.014817 1.637390
-0.081152 -0.014771 1.632309
-0.072047 -0.014741 1.628964
-0.063040 -0.014725 1.627189
-0.054071 -0.014714 1.625962
-0.045120 -0.014704 1.624904
-0.036162 -0.014687 1.623027
-0.027231 -0.014674 1.621549
-0.018232 -0.014592 1.612538
-0.008988 -0.013978 1.544615
-0.000499 -0.013611 1.504056
0.007723 -0.013557 1.498116
0.015904 -0.013523 1.494384
0.024128 -0.013537 1.495922
0.032452 -0.013585 1.501268
0.040787 -0.013618 1.504863
0.049115 -0.013638 1.507030
0.057545 -0.013676 1.511245
0.066378 -0.013788 1.523649
0.079383 -0.014645 1.618347
0.091707 -0.015216 1.681492
0.102152 -0.015400 1.701789
-0.131765 -0.006084 1.707877
-0.120509 -0.005990 1.681573
-0.110263 -0.005935 1.666170
-0.100027 -0.005871 1.648150
-0.090389 -0.005833 1.637390
-0.081205 -0.005818 1.633381
-0.072198 -0.005815 1.632376
-0.063162 -0.005808 1.630346
-0.054224 -0.005808 1.630565
-0.045165 -0.005794 1.626541
-0.036168 -0.005783 1.623325
-0.027223 -0.005775 1.621061
-0.018120 -0.005709 1.602638
-0.008859 -0.005423 1.522362
-0.000498 -0.005342 1.499727
0.007706 -0.005325 1.494813
0.015860 -0.005309 1.490248
0.024124 -0.005328 1.495675
0.032407 -0.005340 1.499197
0.040736 -0.005354 1.502958
0.049052 -0.005361 1.505093
0.057439 -0.005373 1.508452
0.066182 -0.005412 1.519151
0.080145 -0.005820 1.633875
0.092113 -0.006016 1.688940
0.103148 -0.006121 1.718374
-0.131375 0.003278 1.702822
-0.120757 0.003243 1.685038
-0.110559 0.003216 1.670646
-0.100419 0.003185 1.654610
-0.090615 0.003160 1.641480
-0.081431 0.003153 1.637921
-0.072285 0.003146 1.634339
-0.063224 0.003141 1.631925
-0.054251 0.003140 1.631389
-0.045200 0.003133 1.627796
-0.036186 0.003126 1.624099
-0.027192 0.003117 1.619246
-0.017700 0.003013 1.565497
-0.008735 0.002889 1.501064
-0.000496 0.002874 1.493095
0.007690 0.002871 1.491700
0.015880 0.002872 1.492194
0.024145 0.002881 1.496970
0.032378 0.002883 1.497832
0.040676 0.002889 1.500755
0.049032 0.002896 1.504482
0.057490 0.002906 1.509807
0.066096 0.002920 1.517188
0.078885 0.003096 1.608182
0.092646 0.003270 1.698703
0.103515 0.003319 1.724502
-0.131364 0.012620 1.702677
-0.120619 0.012475 1.683110
-0.110402 0.012365 1.668277
-0.100790 0.012309 1.660722
-0.091247 0.012251 1.652928
-0.081760 0.012189 1.644544
-0.072348 0.012124 1.635765
-0.063265 0.012104 1.632994
-0.054193 0.012079 1.629636
-0.045183 0.012061 1.627179
-0.036174 0.012034 1.623585
-0.027028 0.011929 1.609465
-0.017220 0.011289 1.523072
-0.008706 0.011089 1.496119
-0.000494 0.011036 1.488972
0.007677 0.011037 1.489105
0.015873 0.011055 1.491465
0.024128 0.011087 1.495876
0.032360 0.011096 1.496990
0.040647 0.011116 1.499692
0.049000 0.011144 1.503495
0.057513 0.011195 1.510413
0.066152 0.011255 1.518468
0.080197 0.012118 1.634947
0.092947 0.012632 1.704234
0.103816 0.012819 1.729508
-0.131264 0.021946 1.701380
-0.120754 0.021735 1.684988
-0.110804 0.021598 1.674352
-0.101140 0.021496 1.666496
-0.091794 0.021449 1.662838
-0.081963 0.021266 1.648618
-0.072468 0.021135 1.638479
-0.063224 0.021050 1.631924
-0.054145 0.021002 1.628200
-0.045195 0.020995 1.627604
-0.036160 0.020935 1.622943
-0.026515 0.020366 1.578894
-0.017016 0.019413 1.505001
-0.008698 0.019281 1.494786
-0.000494 0.019209 1.489179
0.007664 0.019176 1.486610
0.015852 0.019214 1.489555
0.024080 0.019258 1.492958
0.032319 0.019285 1.495100
0.040529 0.019288 1.495321
0.048823 0.019324 1.498069
0.057427 0.019454 1.508142
0.067083 0.019863 1.539845
0.081934 0.021546 1.670343
0.093092 0.022017 1.706888
0.104957 0.022554 1.748519
-0.131702 0.031386 1.707062
-0.121083 0.031065 1.689583
-0.110944 0.030824 1.676464
-0.101292 0.030687 1.669001
-0.091937 0.030621 1.665430
-0.082173 0.030390 1.652855
-0.072672 0.030210 1.643099
-0.063384 0.030081 1.636069
-0.054216 0.029975 1.630320
-0.045199 0.029928 1.627757
-0.035939 0.029658 1.613036
-0.025638 0.028069 1.526660
-0.016932 0.027534 1.497557
-0.008680 0.027424 1.491566
-0.000494 0.027358 1.487940
0.007669 0.027353 1.487664
0.015870 0.027418 1.491239
0.024065 0.027432 1.491992
0.032305 0.027478 1.494467
0.040539 0.027500 1.495696
0.048970 0.027627 1.502574
0.057938 0.027976 1.521563
0.070730 0.029851 1.623559
0.082383 0.030880 1.679494
0.093062 0.031373 1.706334
-0.131599 0.040721 1.705721
-0.121187 0.040371 1.691033
-0.111152 0.040098 1.679612
-0.101574 0.039956 1.673652
-0.092122 0.039839 1.668776
-0.082298 0.039519 1.655362
-0.072710 0.039247 1.643954
-0.063369 0.039049 1.635666
-0.054268 0.038959 1.631894
-0.045192 0.038854 1.627513
-0.035515 0.038055 1.594020
-0.025314 0.035986 1.507370
-0.016909 0.035703 1.495515
-0.008673 0.035583 1.490485
-0.000494 0.035503 1.487153
0.007661 0.035476 1.486021
0.015858 0.035573 1.490061
0.024060 0.035612 1.491721
0.032247 0.035614 1.491790
0.040442 0.035622 1.492127
0.049062 0.035939 1.505388
0.059246 0.037145 1.555921
0.072470 0.039713 1.663487
0.082272 0.040041 1.677239
0.093629 0.040984 1.716726
-0.131928 0.050206 1.709983
-0.121256 0.049678 1.691990
-0.111101 0.049291 1.678831
-0.101503 0.049105 1.672475
-0.092242 0.049060 1.670949
-0.082390 0.048656 1.657209
-0.072780 0.048313 1.645523
-0.063323 0.047990 1.634498
-0.054191 0.047845 1.629583
-0.044991 0.047572 1.620291
-0.034613 0.045612 1.553511
-0.025208 0.044073 1.501086
-0.016863 0.043792 1.491515
-0.008640 0.043595 1.484814
-0.000493 0.043563 1.483733
0.007649 0.043563 1.483723
0.015819 0.043641 1.486390
0.023955 0.043605 1.485175
0.032131 0.043641 1.486392
0.040456 0.043824 1.492626
0.049275 0.044391 1.511927
0.060813 0.046891 1.597079
0.071988 0.048516 1.652429
0.082038 0.049104 1.672466
0.093870 0.050534 1.721150
-0.132538 0.059864 1.717887
-0.121580 0.059119 1.696513
-0.111387 0.058654 1.683157
-0.101680 0.058383 1.675397
-0.092173 0.058185 1.669714
-0.082625 0.057914 1.661939
-0.072901 0.057438 1.648259
-0.063430 0.057054 1.637240
-0.054299 0.056900 1.632816
-0.044901 0.056350 1.617031
-0.033931 0.053070 1.522922
-0.025120 0.052127 1.495853
-0.016851 0.051937 1.490396
-0.008640 0.051740 1.484767
-0.000492 0.051674 1.482872
0.007654 0.051738 1.484709
0.015831 0.051837 1.487546
0.024010 0.051875 1.488614
0.032190 0.051892 1.489126
0.040530 0.052110 1.495379
0.049747 0.053192 1.526421
0.061786 0.056544 1.622624
0.071704 0.057356 1.645913
0.081651 0.058006 1.664574
-0.132610 0.069328 1.718827
-0.121516 0.068392 1.695623
-0.111553 0.067991 1.685666
-0.101867 0.067700 1.678469
-0.092202 0.067369 1.670240
-0.082659 0.067062 1.662630
-0.073047 0.066616 1.651577
-0.063464 0.066073 1.638125
-0.054149 0.065678 1.628324
-0.044409 0.064507 1.599301
-0.033592 0.060813 1.507701
-0.025110 0.060311 1.495255
-0.016834 0.060055 1.488906
-0.008639 0.059881 1.484599
-0.000493 0.059864 1.484192
0.007653 0.059879 1.484554
0.015819 0.059957 1.486478
0.024033 0.060098 1.489986
0.032227 0.060134 1.490875
0.040670 0.060523 1.500522
0.050427 0.062409 1.547280
0.061994 0.065668 1.628087
0.071477 0.066177 1.640710
0.081269 0.066826 1.656794
0.092145 0.068146 1.689519
-0.133223 0.079124 1.726771
-0.121778 0.077864 1.699283
-0.111543 0.077233 1.685515
-0.101875 0.076916 1.678599
-0.092324 0.076634 1.672438
-0.082621 0.076149 1.661854
-0.073091 0.075724 1.652573
-0.063523 0.075132 1.639649
-0.054126 0.074580 1.627621
-0.043679 0.072079 1.573035
-0.033466 0.068826 1.502029
-0.025024 0.068280 1.490132
-0.016824 0.068185 1.488052
-0.008631 0.067966 1.483266
-0.000492 0.067883 1.481459
0.007642 0.067922 1.482311
0.015812 0.068083 1.485817
0.024026 0.068256 1.489602
0.032322 0.068515 1.495249
0.040967 0.069259 1.511483
0.051606 0.072556 1.583447
0.061727 0.074280 1.621063
0.071195 0.074883 1.634223
0.080773 0.075454 1.646683
0.091565 0.076929 1.678884
-0.133703 0.088918 1.732988
-0.122033 0.087371 1.702846
-0.111695 0.086600 1.687808
-0.101910 0.086157 1.679184
-0.092321 0.085808 1.672388
-0.082930 0.085587 1.668074
-0.073200 0.084917 1.655018
-0.063531 0.084139 1.639850
-0.053948 0.083236 1.622259
-0.042802 0.079090 1.541453
-0.033394 0.076901 1.498795
-0.025010 0.076414 1.489285
-0.016808 0.076275 1.486583
-0.008630 0.076094 1.483051
-0.000492 0.076066 1.482508
0.007641 0.076047 1.482136
0.015801 0.076179 1.484716
0.024052 0.076510 1.491169
0.032436 0.076990 1.500519
0.041228 0.078047 1.521123
0.052283 0.082311 1.604231
0.061603 0.083009 1.617823
0.071055 0.083685 1.631012
0.080629 0.084339 1.643750
0.091083 0.085689 1.670054
-0.122146 0.096804 1.704422
-0.111870 0.096011 1.690452
-0.101939 0.095398 1.679664
-0.092422 0.095089 1.674225
-0.082805 0.094597 1.665558
-0.073236 0.094045 1.655834
-0.063441 0.093006 1.637537
-0.053637 0.091608 1.612925
-0.042211 0.086338 1.520139
-0.033347 0.085006 1.496692
-0.024999 0.084548 1.488630
-0.016786 0.084325 1.484697
-0.008632 0.084246 1.483315
-0.000492 0.084241 1.483219
0.007638 0.084154 1.481696
0.015809 0.084372 1.485534
0.024052 0.084693 1.491175
0.032501 0.085394 1.503525
0.042074 0.088166 1.552329
0.052464 0.091429 1.609782
0.061481 0.091704 1.614624
0.070725 0.092205 1.623434
0.080159 0.092814 1.634166
0.091057 0.094825 1.669564
-0.122696 0.106635 1.712098
-0.112019 0.105428 1.692716
-0.102083 0.104763 1.682038
-0.092480 0.104341 1.675273
-0.082787 0.103713 1.665195
-0.073236 0.103131 1.655846
-0.063617 0.102274 1.642077
-0.053228 0.099691 1.600607
-0.041982 0.094167 1.511918
-0.033288 0.093055 1.494066
-0.024960 0.092572 1.486309
-0.016767 0.092363 1.482950
-0.008626 0.092326 1.482360
-0.000492 0.092284 1.481685
0.007643 0.092341 1.482604
0.015814 0.092551 1.485972
0.024085 0.093003 1.493223
0.032664 0.094114 1.511061
0.043036 0.098896 1.587844
0.052420 0.100178 1.608436
0.061414 0.100453 1.612851
0.070589 0.100919 1.620323
0.079921 0.101478 1.629306
0.090102 0.102895 1.652052
0.102529 0.106384 1.708068
-0.122594 0.115933 1.710671
-0.112206 0.114907 1.695538
-0.102270 0.114201 1.685115
-0.092492 0.113548 1.675486
-0.083037 0.113191 1.670222
-0.073350 0.112391 1.658415
-0.063642 0.111327 1.642715
-0.052423 0.106833 1.576400
-0.041777 0.101961 1.504509
-0.033246 0.101124 1.492155
-0.024930 0.100604 1.484491
-0.016762 0.100474 1.482565
-0.008615 0.100338 1.480556
-0.000492 0.100365 1.480958
0.007648 0.100545 1.483621
0.015825 0.100772 1.486973
0.024134 0.101405 1.496308
0.033004 0.103470 1.526776
0.043317 0.108310 1.598193
0.052412 0.108988 1.608203
0.061463 0.109391 1.614148
0.070540 0.109733 1.619188
0.079843 0.110312 1.627729
0.089897 0.111706 1.648299
0.102581 0.115815 1.708931
-0.122725 0.125452 1.712490
-0.112322 0.124339 1.697290
-0.102271 0.123448 1.685124
-0.092542 0.122808 1.676397
-0.082965 0.122251 1.668787
-0.073476 0.121700 1.661272
-0.063292 0.119679 1.633685
-0.050967 0.112276 1.532622
-0.041592 0.109729 1.497861
-0.033233 0.109268 1.491558
-0.024936 0.108779 1.484890
-0.016774 0.108682 1.483569
-0.008634 0.108693 1.483716
-0.000493 0.108689 1.483655
0.007674 0.109046 1.488532
0.015914 0.109548 1.495383
0.024331 0.110507 1.508478
0.034029 0.115322 1.574201
0.043424 0.117368 1.602139
0.052398 0.117780 1.607751
0.061469 0.118259 1.614290
0.070527 0.118595 1.618889
0.079723 0.119063 1.625277
0.089512 0.120233 1.641240
0.101209 0.123518 1.686082
-0.123118 0.135281 1.717976
-0.112425 0.133775 1.698852
-0.102424 0.132893 1.687648
-0.092687 0.132214 1.679026
-0.083153 0.131705 1.672563
-0.073479 0.130821 1.661334
-0.062767 0.127577 1.620139
-0.050360 0.119250 1.514388
-0.041477 0.117622 1.493716
-0.033179 0.117264 1.489169
-0.024974 0.117103 1.487123
-0.016759 0.116724 1.482313
-0.008626 0.116732 1.482419
-0.000493 0.116898 1.484525
0.007682 0.117338 1.490108
0.015950 0.118020 1.498771
0.024619 0.120192 1.526349
0.034455 0.125511 1.593903
0.043411 0.126121 1.601655
0.052360 0.126511 1.606596
0.061259 0.126683 1.608782
0.070449 0.127338 1.617100
0.079683 0.127917 1.624455
0.089376 0.129043 1.638757
0.100195 0.131439 1.669186
-0.123935 0.145668 1.729374
-0.112671 0.143409 1.702562
-0.102505 0.142267 1.688994
-0.092645 0.141362 1.678249
-0.083213 0.140984 1.673764
-0.073383 0.139754 1.659168
-0.061267 0.133207 1.581433
-0.049931 0.126472 1.501476
-0.041481 0.125830 1.493861
-0.033195 0.125495 1.489886
-0.024975 0.125267 1.487172
-0.016737 0.124689 1.480309
-0.008620 0.124780 1.481398
-0.000494 0.125361 1.488295
0.007696 0.125748 1.492885
0.016075 0.127229 1.510465
0.025303 0.132136 1.568726
0.034545 0.134608 1.598068
0.043380 0.134815 1.600525
0.052247 0.135033 1.603112
0.061329 0.135666 1.610628
0.070506 0.136321 1.618409
0.079788 0.137011 1.626597
0.089178 0.137729 1.635125
0.099980 0.140296 1.665603
-0.113252 0.153540 1.711345
-0.102642 0.151736 1.691244
-0.093001 0.151149 1.684704
-0.083229 0.150197 1.674086
-0.072653 0.147376 1.642651
-0.059424 0.137614 1.533841
-0.049851 0.134496 1.499082
-0.041366 0.133657 1.489729
-0.033055 0.133107 1.483602
-0.024885 0.132950 1.481851
-0.016759 0.132989 1.482286
-0.008641 0.133227 1.484943
-0.000496 0.133934 1.492822
0.007742 0.134735 1.501749
0.016430 0.138510 1.543831
0.025724 0.143088 1.594849
0.034537 0.143345 1.597712
0.043361 0.143533 1.599808
0.052270 0.143893 1.603824
0.061315 0.144470 1.610260
0.070457 0.145102 1.617298
0.079639 0.145665 1.623571
0.089404 0.147073 1.639268
0.099959 0.149405 1.665260
-0.113731 0.163619 1.718583
-0.103207 0.161903 1.700560
-0.093195 0.160728 1.688214
-0.083064 0.159067 1.670770
-0.070915 0.152649 1.603360
-0.058633 0.144087 1.513429
-0.049784 0.142529 1.497063
-0.041338 0.141734 1.488707
-0.033037 0.141168 1.482763
-0.024885 0.141082 1.481865
-0.016769 0.141206 1.483166
-0.008653 0.141577 1.487061
-0.000497 0.142593 1.497731
0.007823 0.144483 1.517585
0.016825 0.150520 1.580993
0.025766 0.152087 1.597455
0.034555 0.152193 1.598570
0.043427 0.152544 1.602259
0.052369 0.152982 1.606861
0.061306 0.153283 1.610016
0.070349 0.153739 1.614811
0.079604 0.154504 1.622848
0.089335 0.155947 1.638005
0.099666 0.158078 1.660381
0.111332 0.161791 1.699382
-0.115512 0.175759 1.745500
-0.103652 0.171972 1.707882
-0.093435 0.170429 1.692560
-0.082498 0.167089 1.659391
-0.067867 0.154508 1.534453
-0.058132 0.151090 1.500505
-0.049668 0.150392 1.493569
-0.041318 0.149830 1.487991
-0.033035 0.149297 1.482696
-0.024913 0.149377 1.483496
-0.016780 0.149443 1.484150
-0.008661 0.149863 1.488314
-0.000500 0.151612 1.505690
0.008035 0.156947 1.558670
0.016971 0.160576 1.594706
0.025776 0.160916 1.598090
0.034586 0.161108 1.599989
0.043468 0.161488 1.603772
0.052376 0.161823 1.607095
0.061401 0.162369 1.612520
0.070388 0.162690 1.615703
0.079791 0.163792 1.626653
0.089352 0.164966 1.638309
0.099357 0.166670 1.655227
0.109977 0.169033 1.678699
-0.104845 0.183431 1.727547
-0.093589 0.180013 1.695355
-0.079836 0.170508 1.605838
-0.066558 0.159784 1.504845
-0.057923 0.158750 1.495107
-0.049541 0.158180 1.489733
-0.041242 0.157705 1.485259
-0.033099 0.157739 1.485583
-0.024926 0.157598 1.484256
-0.016840 0.158149 1.489443
-0.008724 0.159187 1.499220
-0.000509 0.162926 1.534432
0.008170 0.168287 1.584922
0.016953 0.169147 1.593022
0.025726 0.169355 1.594978
0.034570 0.169807 1.599239
0.043470 0.170295 1.603837
0.052416 0.170770 1.608303
0.061386 0.171175 1.612123
0.070556 0.171965 1.619563
0.079976 0.173120 1.630438
0.089244 0.173745 1.636324
0.098901 0.174945 1.647624
0.109252 0.177068 1.667623
0.120638 0.180413 1.699122
-0.076279 0.171331 1.534297
-0.066158 0.167034 1.495821
-0.057782 0.166547 1.491457
-0.049428 0.165976 1.486344
-0.041204 0.165701 1.483884
-0.033110 0.165944 1.486057
-0.025015 0.166339 1.489593
-0.016906 0.166978 1.495321
-0.008832 0.169489 1.517803
-0.000524 0.176290 1.578712
0.008203 0.177679 1.591152
0.016953 0.177889 1.593033
0.025739 0.178198 1.595800
0.034541 0.178435 1.597921
0.043433 0.178944 1.602476
0.052346 0.179354 1.606152
0.061396 0.180051 1.612394
0.070629 0.181040 1.621246
0.079776 0.181610 1.626351
0.089074 0.182375 1.633204
0.098761 0.183726 1.645297
0.108800 0.185448 1.660725
0.119212 0.187492 1.679026
-0.075137 0.177059 1.511329
-0.066031 0.174905 1.492946
-0.057698 0.174478 1.489303
-0.049352 0.173863 1.484053
-0.041126 0.173517 1.481097
-0.033045 0.173756 1.483137
-0.025046 0.174730 1.491454
-0.017004 0.176191 1.503926
-0.009074 0.182689 1.559388
-0.000528 0.186316 1.590344
0.008207 0.186521 1.592097
0.016954 0.186637 1.593089
0.025715 0.186776 1.594272
0.034518 0.187077 1.596847
0.043420 0.187682 1.602008
0.052283 0.187941 1.604220
0.061280 0.188541 1.609340
0.070346 0.189172 1.614729
0.079640 0.190209 1.623581
0.088844 0.190844 1.628995
0.098471 0.192188 1.640469
0.108311 0.193688 1.653273
0.118652 0.195782 1.671151
0.131001 0.200651 1.712706
-0.084902 0.188622 1.537996
-0.074503 0.183786 1.498566
-0.065947 0.182862 1.491034
-0.057758 0.182841 1.490859
-0.049387 0.182135 1.485106
-0.041200 0.181967 1.483731
-0.033114 0.182272 1.486219
-0.025113 0.183398 1.495398
-0.017236 0.186963 1.524473
-0.009210 0.194112 1.582764
-0.000528 0.195040 1.590328
0.008201 0.195102 1.590835
0.016937 0.195183 1.591495
0.025717 0.195544 1.594441
0.034553 0.196037 1.598457
0.043381 0.196297 1.600578
0.052202 0.196439 1.601738
0.061258 0.197301 1.608761
0.070235 0.197722 1.612193
0.079571 0.198945 1.622171
0.088876 0.199854 1.629584
0.098370 0.200982 1.638780
0.107906 0.202001 1.647088
0.117916 0.203679 1.660772
0.129651 0.207884 1.695055
-0.083440 0.193668 1.511514
-0.074382 0.191699 1.496148
-0.065882 0.190856 1.489568
-0.057523 0.190243 1.484783
-0.049336 0.190089 1.483580
-0.041241 0.190298 1.485214
-0.033308 0.191546 1.494951
-0.025379 0.193636 1.511267
-0.017679 0.200346 1.563632
-0.009226 0.203151 1.585525
-0.000527 0.203574 1.588829
0.008195 0.203678 1.589641
0.016947 0.204041 1.592473
0.025694 0.204111 1.593019
0.034499 0.204488 1.595959
0.043322 0.204799 1.598390
0.052178 0.205133 1.600999
0.061188 0.205893 1.606928
0.070161 0.206349 1.610488
0.079429 0.207476 1.619284
0.088722 0.208434 1.626755
0.097951 0.209081 1.631809
0.107691 0.210617 1.643798
0.117567 0.212163 1.655863
0.128464 0.215197 1.679539
-0.093077 0.204918 1.533641
-0.082783 0.200371 1.499607
-0.074253 0.199561 1.493545
-0.065930 0.199174 1.490652
-0.057516 0.198365 1.484592
-0.049270 0.197966 1.481606
-0.041302 0.198742 1.487417
-0.033382 0.200193 1.498279
-0.025843 0.205622 1.538908
-0.017888 0.211404 1.582181
-0.009223 0.211781 1.585002
-0.000526 0.211898 1.585882
0.008178 0.211970 1.586418
0.016928 0.212533 1.590632
0.025707 0.212960 1.593827
0.034440 0.212879 1.593223
0.043270 0.213314 1.596478
0.052238 0.214167 1.602858
0.061146 0.214562 1.605818
0.070066 0.214896 1.608319
0.079244 0.215856 1.615502
0.088423 0.216627 1.621271
0.097708 0.217494 1.627757
0.107401 0.219047 1.639383
0.117141 0.220448 1.649867
0.127934 0.223487 1.672611
0.140705 0.229344 1.716443
-0.091961 0.210775 1.515245
-0.082557 0.208031 1.495522
-0.073937 0.206873 1.487195
-0.065676 0.206556 1.484920
-0.057365 0.205971 1.480710
-0.049285 0.206159 1.482063
-0.041486 0.207827 1.494058
-0.033902 0.211657 1.521591
-0.026420 0.218841 1.573234
-0.017909 0.220338 1.583993
-0.009222 0.220445 1.584766
-0.000526 0.220314 1.583826
0.008162 0.220240 1.583292
0.016875 0.220566 1.585635
0.025642 0.221139 1.589754
0.034407 0.221413 1.591724
0.043158 0.221498 1.592332
0.052039 0.222110 1.596735
0.061042 0.222993 1.603079
0.070090 0.223799 1.608875
0.079175 0.224526 1.614106
0.088313 0.225243 1.619260
0.097694 0.226392 1.627520
0.107302 0.227831 1.637862
0.117068 0.229358 1.648839
0.127594 0.232047 1.668172
0.139604 0.236893 1.703011
-0.091382 0.217712 1.505719
-0.082239 0.215403 1.489752
-0.073853 0.214789 1.485506
-0.065615 0.214504 1.483535
-0.057317 0.213916 1.479470
-0.049460 0.215049 1.487304
-0.041903 0.218195 1.509063
-0.034803 0.225858 1.562063
-0.026568 0.228750 1.582065
-0.017887 0.228747 1.582043
-0.009203 0.228677 1.581556
-0.000525 0.228518 1.580454
0.008146 0.228489 1.580254
0.016859 0.229055 1.584169
0.025585 0.229352 1.586223
0.034335 0.229662 1.588366
0.043091 0.229880 1.589879
0.051994 0.230673 1.595364
0.060852 0.231070 1.598106
0.069876 0.231914 1.603942
0.078902 0.232579 1.608541
0.087985 0.233259 1.613243
0.097421 0.234666 1.622976
0.107017 0.236190 1.633520
0.116855 0.237971 1.645839
0.126958 0.239998 1.659856
0.138409 0.244131 1.688439
-0.101797 0.230855 1.538247
-0.090989 0.225002 1.499243
-0.082152 0.223340 1.488171
-0.073809 0.222806 1.484610
-0.065567 0.222481 1.482449
-0.057339 0.222118 1.480027
-0.049607 0.223872 1.491717
-0.042754 0.231074 1.539704
-0.035206 0.237144 1.580150
-0.026545 0.237229 1.580714
-0.017840 0.236810 1.577925
-0.009184 0.236852 1.578203
-0.000524 0.237049 1.579516
0.008138 0.236922 1.578673
0.016839 0.237462 1.582270
0.025556 0.237786 1.584425
0.034295 0.238098 1.586507
0.043060 0.238428 1.588708
0.051854 0.238783 1.591074
0.060699 0.239232 1.594066
0.069742 0.240253 1.600865
0.078818 0.241148 1.606832
0.087981 0.242100 1.613175
0.097259 0.243165 1.620268
0.106626 0.244257 1.627544
0.116465 0.246177 1.640342
0.126473 0.248154 1.653515
0.138625 0.253790 1.691069
-0.100512 0.236274 1.518822
-0.090922 0.233056 1.498135
-0.082117 0.231409 1.487548
-0.073576 0.230222 1.479921
-0.065504 0.230394 1.481024
-0.057482 0.230815 1.483731
-0.049933 0.233586 1.501545
-0.043561 0.244047 1.568790
-0.035199 0.245760 1.579801
-0.026523 0.245698 1.579402
-0.017814 0.245099 1.575553
-0.009162 0.244924 1.574427
-0.000523 0.245303 1.576864
0.008121 0.245064 1.575328
0.016790 0.245436 1.577717
0.025475 0.245697 1.579398
0.034225 0.246304 1.583294
0.042976 0.246666 1.585623
0.051773 0.247129 1.588598
0.060735 0.248127 1.595014
0.069636 0.248660 1.598440
0.078553 0.249124 1.601427
0.087741 0.250266 1.608764
0.097105 0.251658 1.617714
0.106481 0.252843 1.625330
0.116441 0.255126 1.640008
0.126739 0.257767 1.656981
0.138011 0.261904 1.683579
-0.099623 0.242446 1.505400
-0.090690 0.240661 1.494314
-0.081930 0.239025 1.484157
-0.073488 0.238058 1.478150
-0.065492 0.238477 1.480751
-0.057524 0.239129 1.484802
-0.050304 0.243619 1.512684
-0.043825 0.254182 1.578270
-0.035157 0.254130 1.577946
-0.026479 0.253941 1.576772
-0.017811 0.253704 1.575303
-0.009147 0.253155 1.571895
-0.000522 0.253152 1.571877
0.008094 0.252875 1.570155
0.016737 0.253286 1.572708
0.025378 0.253396 1.573389
0.034137 0.254332 1.579204
0.042856 0.254655 1.581203
0.051639 0.255183 1.584485
0.060526 0.255997 1.589538
0.069444 0.256721 1.594035
0.078454 0.257586 1.599404
0.087656 0.258843 1.607208
0.097028 0.260328 1.616431
0.106752 0.262428 1.629473
0.116327 0.263866 1.638398
0.126564 0.266491 1.654696
0.137978 0.271078 1.683178
-0.110076 0.255802 1.535995
-0.099193 0.249623 1.498892
-0.090454 0.248213 1.490430
-0.081915 0.247123 1.483880
-0.073561 0.246415 1.479628
-0.065469 0.246516 1.480237
-0.057550 0.247387 1.485465
-0.050428 0.252540 1.516408
-0.043775 0.262542 1.576465
-0.035108 0.262416 1.575712
-0.026432 0.262125 1.573961
-0.017772 0.261782 1.571901
-0.009135 0.261433 1.569807
-0.000521 0.261289 1.568941
0.008093 0.261455 1.569942
0.016724 0.261708 1.571460
0.025363 0.261881 1.572500
0.034078 0.262543 1.576470
0.042791 0.262930 1.578794
0.051566 0.263502 1.582231
0.060459 0.264424 1.587769
0.069361 0.265151 1.592131
0.078508 0.266546 1.600507
0.087690 0.267765 1.607828
0.096941 0.268956 1.614983
0.106643 0.271091 1.627801
0.116456 0.273158 1.640211
0.126896 0.276294 1.659041
0.139043 0.282478 1.696174
-0.108615 0.260724 1.515611
-0.099087 0.257572 1.497293
-0.090451 0.256380 1.490364
-0.081972 0.255444 1.484919
-0.073575 0.254581 1.479904
-0.065467 0.254628 1.480177
-0.057503 0.255330 1.484260
-0.050371 0.260568 1.514707
-0.043747 0.271023 1.575485
-0.035092 0.270942 1.575012
-0.026388 0.270308 1.571327
-0.017766 0.270320 1.571394
-0.009145 0.270339 1.571507
-0.000520 0.269610 1.567267
0.008083 0.269727 1.567952
0.016682 0.269649 1.567498
0.025329 0.270140 1.570349
0.033955 0.270220 1.570814
0.042633 0.270591 1.572971
0.051497 0.271818 1.580103
0.060352 0.272653 1.584956
0.069154 0.273070 1.587381
0.078266 0.274479 1.595573
0.087532 0.276090 1.604938
0.097045 0.278116 1.616716
0.106616 0.279952 1.627388
0.116148 0.281413 1.635880
0.126958 0.285537 1.659853
0.139537 0.292821 1.702195
-0.107789 0.266992 1.504074
-0.098792 0.264998 1.492840
-0.090126 0.263608 1.485013
-0.081738 0.262839 1.480680
-0.073569 0.262680 1.479784
-0.065463 0.262735 1.480091
-0.057542 0.263656 1.485279
-0.050154 0.267720 1.508175
-0.043594 0.278687 1.569958
-0.035037 0.279143 1.572528
-0.026342 0.278446 1.568597
-0.017730 0.278368 1.568158
-0.009126 0.278387 1.568269
-0.000519 0.277586 1.563757
0.008055 0.277357 1.562465
0.016635 0.277468 1.563093
0.025225 0.277620 1.563948
0.033844 0.277923 1.565655
0.042474 0.278177 1.567085
0.051285 0.279334 1.573605
0.060214 0.280709 1.581349
0.068891 0.280709 1.581348
0.078079 0.282559 1.591769
0.087385 0.284417 1.602237
0.096809 0.286289 1.612783
0.106703 0.289119 1.628727
0.116530 0.291343 1.641252
0.127454 0.295796 1.666337
-0.117217 0.278032 1.519303
-0.106955 0.273116 1.492443
-0.098398 0.272099 1.486885
-0.089864 0.270967 1.480697
-0.081532 0.270281 1.476949
-0.073561 0.270772 1.479634
-0.065487 0.270958 1.480647
-0.057501 0.271612 1.484221
-0.050091 0.275649 1.506283
-0.043525 0.286850 1.567490
-0.034962 0.287160 1.569186
-0.026373 0.287387 1.570425
-0.017731 0.286984 1.568224
-0.009105 0.286323 1.564610
-0.000519 0.285911 1.562356
0.008050 0.285760 1.561533
0.016641 0.286154 1.563689
0.025228 0.286226 1.564078
0.033778 0.285959 1.562623
0.042465 0.286715 1.566752
0.051216 0.287583 1.571498
0.059944 0.288088 1.574253
0.068846 0.289196 1.580312
0.077983 0.290935 1.589811
0.087260 0.292790 1.599951
0.096684 0.294756 1.610694
0.106662 0.297941 1.628097
0.117145 0.301934 1.649919
0.128503 0.307450 1.680057
-0.115940 0.283250 1.502758
-0.107040 0.281529 1.493631
-0.098445 0.280393 1.487599
-0.089658 0.278451 1.477299
-0.081355 0.277782 1.473748
-0.073244 0.277688 1.473253
-0.065309 0.278323 1.476620
-0.057408 0.279301 1.481809
-0.049988 0.283332 1.503192
-0.043472 0.295090 1.565577
-0.035004 0.296128 1.571084
-0.026371 0.295984 1.570320
-0.017705 0.295155 1.565922
-0.009094 0.294571 1.562819
-0.000518 0.294375 1.561781
0.008056 0.294552 1.562722
0.016642 0.294754 1.563792
0.025254 0.295119 1.565729
0.033754 0.294321 1.561494
0.042386 0.294763 1.563841
0.051180 0.295997 1.570386
0.059910 0.296557 1.573358
0.068833 0.297810 1.580003
0.077987 0.299673 1.589888
0.087329 0.301809 1.601220
0.096896 0.304259 1.614222
0.107186 0.308383 1.636101
0.117969 0.313175 1.661525
0.129266 0.318546 1.690020
-0.126616 0.297201 1.532169
-0.115209 0.289659 1.493287
-0.106591 0.288509 1.487363
-0.098082 0.287490 1.482109
-0.089671 0.286601 1.477525
-0.081469 0.286268 1.475810
-0.073294 0.285966 1.474250
-0.065280 0.286298 1.475964
-0.057362 0.287204 1.480632
-0.050052 0.291950 1.505102
-0.043418 0.303305 1.563638
-0.034890 0.303749 1.565927
-0.026301 0.303799 1.566185
-0.017680 0.303325 1.563742
-0.009089 0.302961 1.561867
-0.000518 0.302677 1.560402
0.008046 0.302764 1.560850
0.016626 0.303040 1.562276
0.025187 0.302908 1.561591
0.033738 0.302745 1.560754
0.042315 0.302841 1.561247
0.051042 0.303792 1.566147
0.059704 0.304141 1.567950
0.068585 0.305377 1.574320
0.077909 0.308086 1.588285
0.087349 0.310664 1.601579
0.097023 0.313529 1.616350
0.107841 0.319298 1.646087
0.118743 0.324406 1.672421
-0.125112 0.301976 1.513961
-0.115130 0.297647 1.492259
-0.106231 0.295668 1.482338
-0.097651 0.294322 1.475590
-0.089396 0.293804 1.472989
-0.081463 0.294344 1.475695
-0.073286 0.294025 1.474098
-0.065282 0.294407 1.476014
-0.057318 0.295103 1.479502
-0.050280 0.301577 1.511961
-0.043459 0.312179 1.565114
-0.034864 0.312111 1.564775
-0.026252 0.311806 1.563246
-0.017672 0.311758 1.563005
-0.009078 0.311178 1.560093
-0.000517 0.310469 1.556539
0.008041 0.311113 1.559772
0.016609 0.311294 1.560678
0.025138 0.310869 1.558545
0.033714 0.311084 1.559623
0.042324 0.311468 1.561549
0.050921 0.311648 1.562454
0.059639 0.312403 1.566236
0.068687 0.314483 1.576668
0.077867 0.316633 1.587444
0.087329 0.319381 1.601220
0.097357 0.323506 1.621904
0.108828 0.331336 1.661160
0.120481 0.338465 1.696901
-0.124468 0.308687 1.506171
-0.114876 0.305161 1.488970
-0.106368 0.304194 1.484248
-0.097732 0.302671 1.476820
-0.089410 0.301932 1.473212
-0.081437 0.302346 1.475234
-0.073235 0.301904 1.473075
-0.065219 0.302213 1.474582
-0.057388 0.303586 1.481285
-0.050710 0.312526 1.524903
-0.043398 0.320318 1.562922
-0.034820 0.320295 1.562810
-0.026231 0.320126 1.561987
-0.017648 0.319904 1.560905
-0.009065 0.319260 1.557761
-0.000517 0.318910 1.556055
0.008025 0.319062 1.556794
0.016584 0.319375 1.558322
0.025111 0.319073 1.556847
0.033623 0.318780 1.555420
0.042258 0.319538 1.559120
0.050869 0.319893 1.560848
0.059694 0.321296 1.567696
0.068612 0.322780 1.574934
0.077917 0.325552 1.588463
0.087311 0.328099 1.600889
0.097985 0.334551 1.632371
0.109747 0.343327 1.675192
-0.123961 0.315659 1.500032
-0.114936 0.313495 1.489748
-0.106275 0.312067 1.482959
-0.097632 0.310457 1.475308
-0.089429 0.310081 1.473525
-0.081376 0.310207 1.474120
-0.073288 0.310210 1.474138
-0.065194 0.310182 1.474004
-0.057436 0.311977 1.482531
-0.051193 0.323950 1.539430
-0.043389 0.328820 1.562574
-0.034805 0.328725 1.562122
-0.026218 0.328530 1.561192
-0.017636 0.328247 1.559851
-0.009068 0.327927 1.558328
-0.000517 0.327599 1.556770
0.008016 0.327219 1.554963
0.016565 0.327553 1.556551
0.025101 0.327489 1.556247
0.033630 0.327382 1.555739
0.042209 0.327716 1.557327
0.050925 0.328815 1.562549
0.059582 0.329278 1.564750
0.068591 0.331318 1.574444
0.077767 0.333623 1.585397
0.087687 0.338332 1.607774
0.098523 0.345394 1.641332
-0.123978 0.323935 1.500241
-0.114850 0.321428 1.488629
-0.106155 0.319842 1.481284
-0.097905 0.319442 1.479430
-0.089582 0.318713 1.476056
-0.081648 0.319358 1.479040
-0.073539 0.319389 1.479185
-0.065390 0.319231 1.478456
-0.057659 0.321353 1.488282
-0.051686 0.335600 1.554261
-0.043390 0.337406 1.562628
-0.034806 0.337306 1.562163
-0.026157 0.336313 1.557565
-0.017585 0.335824 1.555301
-0.009050 0.335825 1.555306
-0.000516 0.335322 1.552976
0.008001 0.335138 1.552124
0.016542 0.335628 1.554391
0.025044 0.335264 1.552709
0.033594 0.335560 1.554080
0.042227 0.336407 1.557999
0.050823 0.336713 1.559419
0.059587 0.337890 1.564870
0.068633 0.340170 1.575426
0.077721 0.342119 1.584457
0.087541 0.346577 1.605102
0.099161 0.356693 1.651953
-0.123781 0.331639 1.497857
-0.114991 0.330001 1.490456
-0.106153 0.327964 1.481255
-0.098157 0.328405 1.483248
-0.090002 0.328344 1.482973
-0.081781 0.328009 1.481459
-0.073783 0.328593 1.484096
-0.065381 0.327298 1.478247
-0.057748 0.330032 1.490598
-0.051684 0.344110 1.554182
-0.043308 0.345320 1.559646
-0.034749 0.345319 1.559639
-0.026156 0.344850 1.557521
-0.017543 0.343551 1.551655
-0.009027 0.343448 1.551192
-0.000515 0.343525 1.551540
0.007994 0.343323 1.550624
0.016514 0.343570 1.551743
0.025074 0.344187 1.554527
0.033634 0.344500 1.555941
0.042114 0.344029 1.553814
0.050779 0.344973 1.558078
0.059629 0.346722 1.565977
0.068630 0.348795 1.575341
0.077798 0.351162 1.586030
0.087445 0.354993 1.603335
0.099086 0.365483 1.650712
-0.123790 0.339882 1.497962
-0.115370 0.339293 1.495364
-0.106514 0.337234 1.486292
-0.098364 0.337252 1.486369
-0.090237 0.337362 1.486853
-0.081727 0.335914 1.480474
-0.073872 0.337142 1.485887
-0.065483 0.335931 1.480550
-0.057784 0.338418 1.491509
-0.051518 0.351504 1.549184
-0.043245 0.353367 1.557392
-0.034717 0.353551 1.558203
-0.026114 0.352829 1.555023
-0.017543 0.352055 1.551611
-0.009019 0.351678 1.549950
-0.000514 0.351435 1.548880
0.007978 0.351147 1.547609
0.016497 0.351713 1.550102
0.025057 0.352484 1.553501
0.033553 0.352188 1.552195
0.042029 0.351843 1.550678
0.050676 0.352808 1.554930
0.059488 0.354473 1.562268
0.068532 0.356931 1.573101
0.077844 0.360079 1.586976
0.087877 0.365589 1.611261
0.099652 0.376678 1.660134
-0.123836 0.348231 1.498520
-0.115426 0.347667 1.496089
-0.106756 0.346175 1.489672
-0.098568 0.346125 1.489457
-0.090458 0.346365 1.490487
-0.081941 0.344938 1.484348
-0.074301 0.347302 1.494519
-0.065867 0.346070 1.489220
-0.058106 0.348533 1.499817
-0.051616 0.360691 1.552136
-0.043177 0.361344 1.554946
-0.034593 0.360800 1.552606
-0.026022 0.360084 1.549526
-0.017533 0.360371 1.550760
-0.009005 0.359600 1.547440
-0.000514 0.359770 1.548172
0.007982 0.359792 1.548270
0.016465 0.359521 1.547103
0.024961 0.359627 1.547558
0.033526 0.360414 1.550946
0.042103 0.360991 1.553429
0.050646 0.361122 1.553990
0.059433 0.362713 1.560839
0.068521 0.365502 1.572840
0.077847 0.368799 1.587026
0.088216 0.375878 1.617489
0.100423 0.388773 1.672980
-0.124388 0.358043 1.505201
-0.115887 0.357298 1.502070
-0.107226 0.355906 1.496218
-0.098886 0.355441 1.494263
-0.091054 0.356881 1.500316
-0.082150 0.353985 1.488140
-0.074989 0.358789 1.508338
-0.067691 0.364053 1.530466
-0.059682 0.366443 1.540513
-0.051710 0.369879 1.554960
-0.043047 0.368766 1.550279
-0.034558 0.368950 1.551054
-0.026047 0.368950 1.551051
-0.017506 0.368304 1.548337
-0.008991 0.367538 1.545117
-0.000513 0.367474 1.544848
0.007972 0.367864 1.546487
0.016473 0.368203 1.547911
0.024958 0.368076 1.547378
0.033546 0.369147 1.551879
0.042131 0.369760 1.554458
0.050731 0.370270 1.556604
0.059465 0.371478 1.561683
0.068526 0.374161 1.572962
0.078092 0.378694 1.592017
0.088383 0.385479 1.620542
-0.117534 0.370735 1.523417
-0.108259 0.367624 1.510633
-0.099812 0.367044 1.508248
-0.093025 0.373016 1.532790
-0.084844 0.374028 1.536946
-0.077378 0.378762 1.556401
-0.069202 0.380764 1.564626
-0.060296 0.378754 1.556366
-0.051754 0.378738 1.556302
-0.043018 0.377011 1.549206
-0.034484 0.376653 1.547735
-0.025975 0.376406 1.546720
-0.017463 0.375882 1.544563
-0.008988 0.375901 1.544644
-0.000514 0.376491 1.547068
0.007968 0.376138 1.545617
0.016448 0.376119 1.545540
0.024945 0.376365 1.546552
0.033510 0.377260 1.550228
0.042082 0.377845 1.552630
0.050782 0.379194 1.558174
0.059469 0.380069 1.561772
0.068510 0.382705 1.572600
0.078388 0.388899 1.598056
0.089086 0.397507 1.633425
0.101952 0.413331 1.698451
-0.078956 0.395199 1.588133
-0.069336 0.390106 1.567668
-0.060417 0.388071 1.559488
-0.051664 0.386602 1.553588
-0.043000 0.385355 1.548573
-0.034396 0.384161 1.543775
-0.025944 0.384434 1.544873
-0.017456 0.384203 1.543946
-0.008981 0.384074 1.543426
-0.000512 0.383903 1.542742
0.007955 0.384003 1.543142
0.016450 0.384644 1.545719
0.024988 0.385513 1.549209
0.033501 0.385656 1.549783
0.041997 0.385589 1.549517
0.050751 0.387508 1.557228
0.059644 0.389784 1.566373
0.068520 0.391392 1.572834
0.078268 0.397059 1.595606
0.089501 0.408364 1.641037
-0.079404 0.406208 1.597155
-0.069512 0.399720 1.571647
-0.060393 0.396471 1.558872
-0.051642 0.394957 1.552919
-0.042977 0.393639 1.547736
-0.034391 0.392575 1.543553
-0.025907 0.392358 1.542700
-0.017455 0.392653 1.543859
-0.008982 0.392559 1.543490
-0.000512 0.392109 1.541721
0.007959 0.392679 1.543961
0.016453 0.393194 1.545986
0.024994 0.394116 1.549614
0.033542 0.394643 1.551683
0.042032 0.394412 1.550778
0.050819 0.396586 1.559324
0.059602 0.398096 1.565263
0.068714 0.401152 1.577277
0.078565 0.407353 1.601657
0.089692 0.418261 1.644547
-0.079806 0.417069 1.605229
-0.069538 0.408493 1.572221
-0.060418 0.405191 1.559512
-0.051561 0.402850 1.550503
-0.042951 0.401888 1.546801
-0.034434 0.401544 1.545477
-0.025889 0.400545 1.541630
-0.017424 0.400415 1.541132
