ply
format ascii 1.0
element vertex 1325
property float x
property float y
property float z
property uchar red
property uchar green
property uchar blue
end_header
-0.024212 0.303399 1.441771 58 59 87
-0.016292 0.303226 1.440946 58 62 90
-0.008368 0.302617 1.438055 45 53 82
-0.000477 0.302553 1.437751 51 58 83
0.007420 0.302885 1.439325 53 62 89
0.015312 0.302773 1.438795 48 59 87
0.023204 0.302739 1.438636 56 62 91
0.031188 0.303618 1.442811 72 67 98
0.039176 0.304169 1.445430 75 70 101
0.047168 0.304560 1.447287 90 85 116
0.055440 0.306387 1.455969 97 93 122
0.064085 0.309553 1.471012 97 94 120
0.073126 0.313715 1.490790 93 90 115
0.082548 0.318506 1.513557 83 80 105
0.092669 0.324873 1.543815 73 80 99
-0.160784 0.300419 1.391330 0 0 0
-0.150757 0.295726 1.369596 51 44 89
-0.142839 0.294894 1.365741 53 47 96
-0.134464 0.292973 1.356847 49 40 90
-0.126769 0.292397 1.354179 41 38 84
-0.119417 0.292592 1.355080 47 48 92
-0.111947 0.292499 1.354652 43 44 88
-0.104605 0.292756 1.355842 43 39 80
-0.097402 0.293468 1.359140 47 38 81
-0.090188 0.294264 1.362826 57 51 92
-0.084472 0.300534 1.391860 57 59 93
-0.080205 0.313713 1.452900 45 51 80
-0.072306 0.314033 1.454381 38 46 75
-0.064125 0.313055 1.449852 39 45 74
-0.055983 0.312013 1.445026 37 43 72
-0.048083 0.312202 1.445901 45 52 79
-0.040096 0.311790 1.443992 47 54 79
-0.032130 0.311380 1.442092 41 50 77
-0.024198 0.311132 1.440947 47 56 83
-0.016273 0.310779 1.439309 44 51 78
-0.008371 0.310629 1.438615 47 56 83
-0.000477 0.310319 1.437179 47 59 83
0.007408 0.310300 1.437092 49 59 83
0.015305 0.310531 1.438163 50 58 87
0.023208 0.310681 1.438858 50 56 85
0.031136 0.311013 1.440396 61 61 91
0.039093 0.311435 1.442350 68 66 96
0.047174 0.312539 1.447463 76 71 102
0.055466 0.314522 1.456643 92 89 114
0.064050 0.317455 1.470228 102 98 123
0.073200 0.322218 1.492287 91 87 112
0.083270 0.329669 1.526796 73 75 93
-0.161600 0.309617 1.398392 47 43 85
-0.151010 0.303751 1.371896 33 31 73
-0.142697 0.302087 1.364381 44 39 84
-0.134681 0.300904 1.359041 34 28 75
-0.127074 0.300550 1.357439 34 27 70
-0.119520 0.300284 1.356240 37 30 73
-0.112105 0.300358 1.356574 31 30 69
-0.104816 0.300802 1.358579 28 28 64
-0.097320 0.300674 1.357999 36 31 70
-0.090301 0.302119 1.364525 55 45 81
-0.085708 0.312679 1.412223 53 59 88
-0.080268 0.321939 1.454046 43 50 75
-0.072114 0.321157 1.450512 44 51 78
-0.064013 0.320446 1.447303 40 49 76
-0.055942 0.319712 1.443985 44 53 80
-0.048012 0.319666 1.443779 48 55 82
-0.040102 0.319760 1.444202 41 48 75
-0.032097 0.318964 1.440609 49 58 85
-0.024135 0.318208 1.437192 50 57 82
-0.016258 0.318372 1.437936 52 58 81
-0.008367 0.318373 1.437938 54 61 86
-0.000477 0.318093 1.436673 47 56 83
0.007400 0.317824 1.435457 45 51 80
0.015298 0.318271 1.437477 52 56 85
0.023172 0.318090 1.436660 57 56 88
0.031075 0.318292 1.437570 59 59 89
0.039143 0.319761 1.444207 62 64 94
0.047290 0.321269 1.451019 76 72 101
0.055486 0.322634 1.457182 93 86 113
0.064030 0.325419 1.469760 100 94 119
0.073727 0.332784 1.503028 87 83 108
0.084133 0.341550 1.542616 18 18 32
-0.161188 0.316481 1.394824 0 0 0
-0.150800 0.310845 1.369984 33 33 73
-0.142916 0.310050 1.366482 39 42 80
-0.135090 0.309298 1.363169 24 25 63
-0.127276 0.308488 1.359600 28 28 64
-0.119933 0.308791 1.360935 32 31 63
-0.112420 0.308667 1.360385 30 32 62
-0.105291 0.309651 1.364725 14 18 47
-0.097510 0.308727 1.360650 33 32 71
-0.090494 0.310269 1.367447 51 47 83
-0.086860 0.324736 1.431210 52 56 84
-0.080177 0.329543 1.452392 45 52 72
-0.072021 0.328692 1.448642 35 40 65
-0.063913 0.327876 1.445048 39 46 73
-0.055903 0.327402 1.442957 39 46 73
-0.047943 0.327115 1.441693 47 51 79
-0.039978 0.326674 1.439750 48 54 83
-0.032030 0.326181 1.437575 49 55 84
-0.024144 0.326216 1.437732 49 56 83
-0.016252 0.326141 1.437400 52 60 83
-0.008358 0.325874 1.436223 54 60 83
-0.000477 0.325949 1.436554 53 60 85
0.007396 0.325511 1.434623 58 65 92
0.015272 0.325609 1.435054 58 57 89
0.023161 0.325815 1.435962 56 55 87
0.031104 0.326478 1.438888 58 60 90
0.039157 0.327800 1.444711 56 59 87
0.047227 0.328791 1.449080 71 68 94
0.055629 0.331482 1.460939 94 84 107
0.064275 0.334761 1.475392 106 95 121
0.073867 0.341680 1.505884 80 77 99
0.085615 0.356180 1.569789 8 9 19
-0.159928 0.321601 1.383922 44 43 82
-0.150753 0.318262 1.369555 39 37 73
-0.143051 0.317846 1.367765 41 38 77
-0.135070 0.316731 1.362968 42 39 78
-0.127479 0.316453 1.361770 26 23 62
-0.120092 0.316678 1.362739 31 33 64
-0.112646 0.316764 1.363110 39 42 73
-0.105546 0.317907 1.368029 24 29 60
-0.097860 0.317326 1.365525 33 35 70
-0.090501 0.317797 1.367554 46 42 78
-0.086642 0.331753 1.427608 54 54 84
-0.079969 0.336637 1.448625 43 50 70
-0.071975 0.336428 1.447726 39 46 71
-0.063949 0.335996 1.445869 41 44 72
-0.055877 0.335166 1.442298 47 48 74
-0.047845 0.334344 1.438758 54 55 81
-0.039915 0.334046 1.437478 50 57 82
-0.032001 0.333773 1.436300 47 57 81
-0.024150 0.334189 1.438090 50 59 86
-0.016259 0.334188 1.438089 51 57 86
-0.008348 0.333382 1.434621 50 53 81
-0.000476 0.333279 1.434177 51 53 83
0.007400 0.333590 1.435515 49 55 84
0.015286 0.333782 1.436341 47 55 84
0.023172 0.333854 1.436651 47 55 84
0.031153 0.334902 1.441161 53 61 91
0.039137 0.335557 1.443978 51 58 85
0.047171 0.336346 1.447376 72 73 94
0.055648 0.339610 1.461419 90 88 108
0.064404 0.343542 1.478340 96 90 113
0.074069 0.350903 1.510015 80 77 93
0.086017 0.366508 1.577170 6 9 14
-0.159231 0.327760 1.377893 38 40 75
-0.151173 0.326686 1.373376 41 40 74
-0.143395 0.326133 1.371054 44 43 77
-0.134964 0.323956 1.361902 40 39 73
-0.128039 0.325348 1.367754 25 27 57
-0.120792 0.326045 1.370681 38 37 69
-0.112977 0.325197 1.367117 29 27 63
-0.106175 0.327355 1.376190 24 25 59
-0.098229 0.326043 1.370676 26 26 62
-0.090682 0.325952 1.370289 40 38 74
-0.086097 0.337450 1.418628 57 61 89
-0.080168 0.345446 1.452241 43 51 74
-0.071927 0.344144 1.446768 42 52 76
-0.063832 0.343302 1.443231 45 55 79
-0.055765 0.342391 1.439399 50 55 80
-0.047796 0.341887 1.437280 46 51 76
-0.039937 0.342123 1.438274 48 52 77
-0.031968 0.341302 1.434822 50 55 80
-0.024126 0.341729 1.436616 48 55 82
-0.016252 0.341922 1.437429 57 58 86
-0.008347 0.341189 1.434347 50 53 81
-0.000476 0.340800 1.432712 48 52 81
0.007393 0.341137 1.434130 51 55 84
0.015291 0.341778 1.436822 48 57 84
0.023182 0.341876 1.437236 47 56 83
0.031149 0.342769 1.440987 51 57 86
0.039177 0.343827 1.445438 53 57 86
0.047133 0.344013 1.446219 70 71 97
0.055544 0.346984 1.458707 92 88 113
0.064503 0.352194 1.480609 84 80 105
0.074128 0.359473 1.511213 64 63 79
0.085376 0.372364 1.565407 3 7 12
-0.159028 0.334894 1.376137 31 39 69
-0.151324 0.334554 1.374743 31 33 63
-0.143581 0.334091 1.372840 35 37 68
-0.135360 0.332400 1.365892 29 31 62
-0.128498 0.334046 1.372653 21 23 53
-0.120856 0.333742 1.371404 25 27 57
-0.113038 0.332880 1.367864 31 31 61
-0.106943 0.337329 1.386146 23 25 55
-0.099421 0.337613 1.387310 28 32 61
-0.091690 0.337177 1.385520 24 27 58
-0.087008 0.348889 1.433645 51 54 82
-0.080087 0.353055 1.450764 40 47 72
-0.071840 0.351653 1.445005 39 49 73
-0.063736 0.350691 1.441051 41 51 75
-0.055798 0.350499 1.440261 43 52 79
-0.047836 0.350067 1.438486 50 54 82
-0.039900 0.349688 1.436931 54 56 86
-0.031977 0.349265 1.435190 51 55 83
-0.024098 0.349207 1.434954 54 58 86
-0.016239 0.349542 1.436331 48 53 78
-0.008341 0.348822 1.433371 52 54 78
-0.000476 0.348696 1.432852 53 54 80
0.007395 0.349108 1.434546 52 59 86
0.015283 0.349488 1.436109 47 56 83
0.023151 0.349306 1.435358 42 52 76
0.031097 0.350088 1.438575 42 52 76
0.039135 0.351382 1.443890 50 57 82
0.047208 0.352503 1.448497 72 74 98
0.055688 0.355908 1.462490 86 84 106
0.064567 0.360675 1.482077 78 76 98
0.074501 0.369616 1.518818 54 55 69
-0.159705 0.343902 1.381994 16 26 56
-0.151923 0.343452 1.380186 21 25 53
-0.144226 0.343157 1.379001 36 34 64
-0.135845 0.341113 1.370787 32 27 58
-0.128896 0.342635 1.376903 27 25 55
-0.121654 0.343521 1.380463 29 28 54
-0.113391 0.341447 1.372127 21 26 51
-0.108083 0.348610 1.400913 35 39 64
-0.102628 0.356362 1.432065 30 44 63
-0.095402 0.358736 1.441605 56 67 89
-0.087967 0.360688 1.449450 50 56 79
-0.079812 0.359776 1.445785 43 53 77
-0.071636 0.358562 1.440905 41 53 77
-0.063660 0.358172 1.439339 43 54 76
-0.055682 0.357654 1.437255 50 57 82
-0.047761 0.357396 1.436219 47 54 81
-0.039842 0.357054 1.434844 45 54 81
-0.031957 0.356921 1.434312 52 58 87
-0.024072 0.356706 1.433445 51 58 85
-0.016194 0.356420 1.432299 51 60 87
-0.008333 0.356369 1.432093 49 54 79
-0.000475 0.356195 1.431393 48 50 80
0.007394 0.356926 1.434333 48 54 83
0.015272 0.357098 1.435024 43 51 80
0.023176 0.357554 1.436854 37 46 73
0.031139 0.358471 1.440542 48 55 80
0.039153 0.359474 1.444570 53 57 82
0.047272 0.360941 1.450466 72 72 96
0.055689 0.363937 1.462507 78 76 98
0.064917 0.370809 1.490120 74 72 94
0.075422 0.382620 1.537583 42 42 56
-0.154097 0.356049 1.399938 19 26 51
-0.145967 0.354958 1.395649 15 23 52
-0.137638 0.353237 1.388881 15 33 64
-0.131279 0.356664 1.402356 25 48 80
-0.115478 0.355399 1.397381 50 81 112
-0.106734 0.378790 1.489353 45 63 86
-0.097296 0.373927 1.470232 53 67 86
-0.088208 0.369648 1.453409 51 62 82
-0.079721 0.367291 1.444140 47 58 80
-0.071552 0.366040 1.439222 46 57 84
-0.063605 0.365754 1.438095 49 59 83
-0.055719 0.365785 1.438217 52 58 81
-0.047723 0.364985 1.435073 57 61 85
-0.039782 0.364377 1.432681 52 57 82
-0.031927 0.364453 1.432980 45 52 77
-0.024078 0.364653 1.433768 46 53 80
-0.016183 0.364039 1.431353 42 50 79
-0.008327 0.363946 1.430987 52 58 87
-0.000475 0.364256 1.432206 49 54 85
0.007389 0.364550 1.433361 44 49 80
0.015262 0.364733 1.434081 48 54 83
0.023206 0.365919 1.438745 47 51 79
0.031158 0.366596 1.441409 49 52 80
0.039188 0.367733 1.445876 56 57 83
0.047434 0.370169 1.455455 70 67 92
0.055932 0.373583 1.468881 81 77 102
0.065252 0.380943 1.497819 82 76 99
0.075762 0.392824 1.544533 45 47 65
-0.097508 0.382828 1.473440 54 63 90
-0.088143 0.377345 1.452338 54 61 86
-0.079786 0.375523 1.445324 49 56 81
-0.071651 0.374451 1.441198 52 59 86
-0.063530 0.373202 1.436393 49 54 79
-0.055549 0.372533 1.433816 53 57 81
-0.047683 0.372547 1.433872 52 56 80
-0.039759 0.372023 1.431854 51 57 80
-0.031887 0.371847 1.431177 50 58 81
-0.024042 0.371965 1.431631 54 59 84
-0.016177 0.371761 1.430846 55 58 86
-0.008332 0.372040 1.431921 49 53 82
-0.000475 0.372029 1.431878 46 54 83
0.007391 0.372511 1.433732 43 50 77
0.015301 0.373557 1.437756 42 46 71
0.023225 0.374111 1.439891 46 50 74
0.031216 0.375203 1.444094 41 47 70
0.039209 0.375861 1.446625 56 58 82
0.047400 0.377883 1.454409 70 68 88
0.056035 0.382350 1.471600 80 74 97
0.065337 0.389669 1.499770 81 78 104
0.075874 0.401887 1.546797 51 58 78
-0.097783 0.392016 1.477598 43 56 82
-0.088257 0.385815 1.454224 49 65 88
-0.079762 0.383337 1.444883 50 62 86
-0.071612 0.382150 1.440413 56 57 83
-0.063491 0.380852 1.435519 48 53 78
-0.055561 0.380485 1.434137 43 49 72
-0.047676 0.380359 1.433660 52 58 81
-0.039784 0.380122 1.432769 47 52 77
-0.031893 0.379764 1.431416 44 52 75
-0.024038 0.379757 1.431392 47 53 76
-0.016199 0.380128 1.432791 46 50 75
-0.008334 0.379948 1.432109 45 52 79
-0.000476 0.380455 1.434023 42 51 78
0.007410 0.381349 1.437394 40 45 70
0.015322 0.381966 1.439717 40 45 70
0.023223 0.381990 1.439810 42 47 72
0.031198 0.382902 1.443247 51 58 78
0.039282 0.384513 1.449316 58 57 77
0.047654 0.387928 1.462189 73 68 89
0.056294 0.392230 1.478406 82 76 99
0.065713 0.400188 1.508402 61 62 88
0.075734 0.409622 1.543961 48 62 81
-0.097786 0.400135 1.477641 0 0 0
-0.088326 0.394103 1.455365 52 62 86
-0.079742 0.391168 1.444527 54 62 85
-0.071604 0.390013 1.440259 51 55 79
-0.063582 0.389281 1.437559 44 48 77
-0.055574 0.388445 1.434470 45 62 88
-0.047612 0.387704 1.431735 48 57 84
-0.039763 0.387771 1.431982 51 57 80
-0.031942 0.388217 1.433627 44 49 74
-0.024022 0.387362 1.430471 49 57 80
-0.016187 0.387703 1.431732 46 57 79
-0.008336 0.387915 1.432515 35 46 68
-0.000476 0.388672 1.435309 46 54 83
0.007410 0.389224 1.437346 41 45 73
0.015325 0.389954 1.440045 41 46 71
0.023244 0.390241 1.441101 44 55 77
0.031275 0.391784 1.446802 51 57 80
0.039334 0.392983 1.451230 52 53 74
0.047814 0.397283 1.467107 63 62 82
0.056372 0.400892 1.480434 79 78 98
0.065597 0.407741 1.505729 70 74 98
0.076193 0.420625 1.553305 37 51 74
-0.097820 0.408385 1.478156 0 0 0
-0.088224 0.401623 1.453677 52 61 88
-0.079700 0.398881 1.443755 54 64 88
-0.071562 0.397685 1.439426 47 52 77
-0.063603 0.397303 1.438041 57 55 85
-0.055557 0.396195 1.434033 46 52 81
-0.047597 0.395438 1.431293 49 51 81
-0.039738 0.395385 1.431102 49 54 79
-0.031871 0.395205 1.430449 46 50 75
-0.024010 0.395001 1.429711 45 52 77
-0.016182 0.395438 1.431292 46 56 80
-0.008343 0.396092 1.433659 45 50 75
-0.000477 0.396691 1.435827 46 50 78
0.007410 0.397114 1.437359 44 45 71
0.015329 0.397942 1.440357 44 49 74
0.023268 0.398556 1.442578 45 51 74
0.031265 0.399598 1.446347 47 56 76
0.039429 0.401923 1.454763 52 56 75
0.047893 0.406000 1.469520 67 67 85
0.056473 0.409747 1.483084 76 74 96
0.065805 0.417326 1.510514 74 74 98
0.076420 0.430427 1.557936 31 45 68
-0.098496 0.419374 1.488369 0 0 0
-0.088369 0.410271 1.456063 53 63 87
-0.079756 0.407089 1.444769 56 64 87
-0.071529 0.405395 1.438757 58 64 87
-0.063551 0.404865 1.436876 59 61 85
-0.055494 0.403604 1.432401 49 55 78
-0.047609 0.403389 1.431637 54 60 83
-0.039736 0.403213 1.431014 40 47 72
-0.031827 0.402495 1.428465 50 57 82
-0.023986 0.402447 1.428295 49 56 81
-0.016156 0.402621 1.428914 44 50 79
-0.008336 0.403644 1.432542 45 47 77
-0.000476 0.403783 1.433035 45 50 75
0.007403 0.404636 1.436062 42 48 71
0.015310 0.405344 1.438577 44 49 74
0.023302 0.407069 1.444698 46 48 72
0.031338 0.408483 1.449718 49 55 74
0.039555 0.411210 1.459394 50 55 76
0.047968 0.414714 1.471831 63 61 83
0.056543 0.418405 1.484931 81 74 95
0.065930 0.426420 1.513375 82 69 91
0.077213 0.443532 1.574104 35 46 66
-0.099480 0.431812 1.503237 41 50 77
-0.088733 0.419983 1.462059 54 71 90
-0.079914 0.415841 1.447639 46 60 79
-0.071617 0.413796 1.440521 51 62 84
-0.063577 0.412918 1.437463 53 57 81
-0.055449 0.411135 1.431256 55 62 82
-0.047582 0.411016 1.430840 52 63 83
-0.039712 0.410820 1.430159 50 61 83
-0.031840 0.410507 1.429069 49 56 81
-0.023979 0.410167 1.427885 41 48 75
-0.016156 0.410470 1.428941 49 53 81
-0.008326 0.410985 1.430734 44 47 75
-0.000476 0.412057 1.434464 43 50 75
0.007404 0.412548 1.436175 48 59 79
0.015327 0.413705 1.440201 39 48 68
0.023312 0.415181 1.445343 47 51 70
0.031378 0.416969 1.451566 49 52 73
0.039626 0.419975 1.462029 55 55 79
0.047989 0.422977 1.472481 68 66 88
0.056489 0.426150 1.483526 79 77 97
0.065916 0.434633 1.513058 71 72 92
0.077195 0.452062 1.573734 35 44 64
-0.088761 0.428141 1.462522 43 57 79
-0.079917 0.423798 1.447686 45 56 76
-0.071626 0.421755 1.440706 51 54 82
-0.063461 0.420038 1.434841 60 64 89
-0.055408 0.418677 1.430193 53 59 82
-0.047538 0.418480 1.429518 50 61 83
-0.039676 0.418287 1.428859 49 53 81
-0.031835 0.418279 1.428834 48 54 83
-0.023996 0.418292 1.428877 49 58 85
-0.016189 0.419179 1.431906 39 50 72
-0.008343 0.419692 1.433660 42 49 76
-0.000476 0.419994 1.434692 40 47 72
0.007413 0.420937 1.437913 45 51 74
0.015355 0.422367 1.442799 47 54 73
0.023322 0.423294 1.445964 45 49 68
0.031407 0.425335 1.452936 50 47 72
0.039641 0.428156 1.462572 58 55 80
0.047916 0.430395 1.470221 70 71 92
0.056610 0.435221 1.486704 75 72 97
0.066236 0.445083 1.520396 72 69 91
-0.088675 0.435746 1.461114 49 60 82
-0.079781 0.431010 1.445232 54 63 83
-0.071584 0.429410 1.439866 59 60 86
-0.063399 0.427490 1.433429 49 50 76
-0.055443 0.426795 1.431099 54 58 82
-0.047549 0.426417 1.429832 49 55 78
-0.039686 0.426237 1.429226 52 57 82
-0.031825 0.425987 1.428390 47 51 76
-0.023996 0.426139 1.428898 43 47 71
-0.016194 0.427144 1.432268 48 55 75
-0.008337 0.427284 1.432738 40 48 71
-0.000477 0.428080 1.435409 39 47 70
0.007412 0.428818 1.437881 43 49 72
0.015355 0.430293 1.442828 42 48 71
0.023367 0.432051 1.448724 42 46 70
0.031519 0.434853 1.458117 49 53 77
0.039614 0.435881 1.461564 61 62 82
0.047968 0.438947 1.471846 67 66 86
0.056621 0.443459 1.486976 60 65 86
0.066512 0.455319 1.526742 63 74 96
-0.088750 0.444136 1.462341 45 52 77
-0.079894 0.439559 1.447269 54 61 86
-0.071482 0.436687 1.437813 55 61 84
-0.063372 0.435173 1.432830 56 58 82
-0.055469 0.434851 1.431769 53 58 79
-0.047539 0.434177 1.429550 53 59 82
-0.039621 0.433371 1.426895 46 57 79
-0.031802 0.433511 1.427356 48 52 76
-0.023960 0.433338 1.426788 50 50 74
-0.016178 0.434590 1.430907 42 47 68
-0.008333 0.434946 1.432080 40 50 68
-0.000476 0.435916 1.435276 47 54 73
0.007405 0.436256 1.436395 43 47 72
0.015358 0.438312 1.443163 40 44 69
0.023393 0.440499 1.450364 48 52 77
0.031447 0.441836 1.454767 55 58 79
0.039531 0.442973 1.458509 60 61 81
0.047883 0.446231 1.469239 61 62 83
0.056663 0.451957 1.488092 71 74 95
0.066558 0.464011 1.527780 51 65 84
-0.088954 0.453200 1.465703 50 58 81
-0.080039 0.448313 1.449900 52 60 83
-0.071576 0.445160 1.439700 51 58 83
-0.063413 0.443321 1.433755 56 61 86
-0.055478 0.442778 1.431998 58 65 92
-0.047606 0.442639 1.431549 46 53 80
-0.039708 0.442168 1.430023 46 51 76
-0.031843 0.441912 1.429196 51 52 78
-0.023971 0.441366 1.427429 44 44 68
-0.016178 0.442433 1.430881 50 52 76
-0.008347 0.443509 1.434360 41 46 71
-0.000477 0.444381 1.437181 43 47 72
0.007415 0.444719 1.438276 41 45 70
0.015349 0.445942 1.442231 36 40 65
0.023387 0.448333 1.449963 42 44 68
0.031481 0.450307 1.456346 54 57 78
0.039685 0.452736 1.464204 57 61 85
0.047914 0.454579 1.470163 78 61 88
0.056739 0.460736 1.490076 74 72 94
0.067085 0.476136 1.539882 32 39 58
-0.089699 0.465108 1.477987 0 0 0
-0.080125 0.456762 1.451466 53 65 83
-0.071604 0.453234 1.440254 50 61 83
-0.063518 0.451932 1.436118 52 59 84
-0.055440 0.450325 1.431009 54 57 85
-0.047540 0.449874 1.429577 47 51 80
-0.039680 0.449691 1.428996 44 50 79
-0.031826 0.449509 1.428418 50 55 80
-0.023993 0.449598 1.428700 48 51 72
-0.016170 0.450054 1.430149 41 45 69
-0.008328 0.450358 1.431116 32 39 66
-0.000477 0.451793 1.435676 38 44 73
0.007419 0.452869 1.439093 38 43 68
0.015341 0.453623 1.441489 44 53 73
0.023364 0.455841 1.448539 50 55 80
0.031525 0.458943 1.458395 49 53 82
0.039687 0.460794 1.464277 57 58 84
0.047946 0.462954 1.471142 64 65 86
0.056898 0.470232 1.494269 62 65 86
0.067215 0.485527 1.542872 29 39 56
-0.089922 0.474392 1.481653 29 43 65
-0.080207 0.465201 1.452948 41 55 78
-0.071535 0.460698 1.438883 47 60 82
-0.063529 0.459892 1.436366 53 60 80
-0.055438 0.458164 1.430970 46 54 77
-0.047531 0.457628 1.429295 50 60 84
-0.039690 0.457656 1.429384 38 47 74
-0.031840 0.457546 1.429040 36 46 70
-0.023987 0.457327 1.428355 39 50 70
-0.016185 0.458350 1.431551 37 48 68
-0.008331 0.458403 1.431715 37 47 71
-0.000477 0.459728 1.435853 34 43 70
0.007438 0.461938 1.442756 39 45 74
0.015396 0.463193 1.446677 40 45 70
0.023407 0.464640 1.451194 41 51 75
0.031458 0.465944 1.455269 44 53 80
0.039623 0.468065 1.461893 50 58 81
0.048083 0.472373 1.475348 58 62 81
0.057219 0.481129 1.502697 67 71 89
0.067268 0.494383 1.544093 25 35 52
-0.090090 0.483422 1.484419 0 0 0
-0.080359 0.474068 1.455694 38 50 74
-0.071817 0.470439 1.444550 49 60 87
-0.063535 0.467817 1.436500 47 57 81
-0.055451 0.466121 1.431292 41 51 75
-0.047535 0.465511 1.429420 39 49 73
-0.039659 0.465126 1.428237 47 54 81
-0.031835 0.465325 1.428848 39 43 71
-0.024032 0.466036 1.431030 39 47 70
-0.016176 0.465938 1.430731 35 46 68
-0.008329 0.466113 1.431266 36 47 74
-0.000477 0.467468 1.435429 36 46 70
0.007431 0.469409 1.441388 38 45 70
0.015423 0.471951 1.449193 42 46 70
0.023439 0.473260 1.453215 49 53 77
0.031489 0.474401 1.456718 51 55 79
0.039609 0.475930 1.461411 49 56 76
0.048131 0.480952 1.476832 57 61 79
0.057436 0.491232 1.508398 54 59 74
0.068312 0.510659 1.568053 24 33 47
-0.090290 0.492659 1.487715 35 44 64
-0.080889 0.485233 1.465291 41 52 72
-0.071840 0.478516 1.445005 43 54 76
-0.063560 0.475886 1.437065 43 54 76
-0.055484 0.474257 1.432144 48 54 77
-0.047487 0.472874 1.427969 53 55 79
-0.039648 0.472834 1.427847 43 47 75
-0.031807 0.472738 1.427557 43 48 73
-0.024007 0.473395 1.429543 41 48 68
-0.016181 0.473924 1.431138 33 44 66
-0.008347 0.475038 1.434503 29 40 67
-0.000477 0.475709 1.436529 37 50 72
0.007423 0.476821 1.439886 51 60 80
0.015393 0.478967 1.446367 52 54 78
0.023431 0.481060 1.452689 44 45 71
0.031541 0.483194 1.459134 43 47 72
0.039743 0.485580 1.466339 48 53 74
0.048308 0.490856 1.482270 54 60 79
0.057657 0.501428 1.514196 49 59 76
-0.090439 0.501649 1.490171 35 50 66
-0.080940 0.493587 1.466222 34 48 66
-0.071802 0.486187 1.444239 37 48 68
-0.063460 0.483014 1.434813 48 56 79
-0.055507 0.482313 1.432733 45 54 74
-0.047533 0.481178 1.429360 41 50 70
-0.039687 0.481146 1.429264 40 51 71
-0.031847 0.481184 1.429380 42 50 73
-0.024024 0.481587 1.430575 33 43 67
-0.016195 0.482204 1.432407 33 41 70
-0.008357 0.483457 1.436131 34 42 71
-0.000478 0.484719 1.439880 43 50 75
0.007435 0.485544 1.442331 43 47 71
0.015409 0.487415 1.447888 46 45 71
0.023437 0.489166 1.453088 49 48 74
0.031506 0.490648 1.457491 47 48 74
0.039747 0.493675 1.466484 52 56 80
0.048310 0.499010 1.482332 47 50 71
0.057781 0.510831 1.517445 41 48 65
-0.091004 0.513014 1.499490 31 46 65
-0.081267 0.503657 1.472141 30 46 63
-0.072052 0.495830 1.449263 35 50 69
-0.063543 0.491524 1.436676 40 51 71
-0.055616 0.491137 1.435546 33 44 66
-0.047622 0.489934 1.432029 38 48 72
-0.039740 0.489636 1.431158 42 52 76
-0.031852 0.489106 1.429610 40 50 74
-0.024011 0.489166 1.429785 32 45 71
-0.016199 0.490193 1.432784 33 39 68
-0.008355 0.491204 1.435742 36 40 69
-0.000478 0.492319 1.438999 37 41 66
0.007442 0.493921 1.443683 42 45 66
0.015428 0.495969 1.449669 43 49 72
0.023407 0.496493 1.451201 43 48 73
0.031505 0.498628 1.457441 48 52 77
0.039872 0.503303 1.471104 43 47 71
0.048474 0.508865 1.487362 53 58 79
0.058412 0.524827 1.534016 23 28 43
-0.091082 0.521685 1.500764 29 43 62
-0.081384 0.512471 1.474256 31 45 63
-0.072089 0.504047 1.450024 35 51 68
-0.063569 0.499614 1.437270 45 53 76
-0.055512 0.498089 1.432883 43 51 74
-0.047635 0.497930 1.432427 43 48 73
-0.039735 0.497430 1.430989 35 45 69
-0.031855 0.496998 1.429747 34 46 70
-0.024014 0.497075 1.429966 29 45 68
-0.016198 0.498006 1.432644 26 40 63
-0.008352 0.498913 1.435256 30 38 61
-0.000478 0.500784 1.440637 31 41 59
0.007454 0.502653 1.446015 38 48 65
0.015414 0.503480 1.448393 35 46 66
0.023405 0.504415 1.451082 38 45 70
0.031595 0.508083 1.461635 43 48 73
0.040043 0.513571 1.477421 48 54 77
0.048881 0.521364 1.499840 44 51 70
0.058886 0.537574 1.546472 25 35 52
-0.091158 0.530366 1.502028 29 43 62
-0.081513 0.521390 1.476607 28 41 57
-0.072570 0.515414 1.459683 42 55 71
-0.063759 0.509018 1.441568 42 51 71
-0.055515 0.505975 1.432952 49 56 76
-0.047619 0.505626 1.431962 47 52 73
-0.039715 0.505026 1.430264 37 48 70
-0.031864 0.504983 1.430142 33 44 66
-0.024019 0.505019 1.430243 33 44 64
-0.016214 0.506362 1.434047 31 42 62
-0.008358 0.507162 1.436311 36 43 68
-0.000478 0.508332 1.439625 34 42 65
0.007460 0.510970 1.447096 31 42 64
0.015453 0.512711 1.452029 29 40 60
0.023450 0.513359 1.453863 31 38 63
0.031591 0.516034 1.461439 42 46 71
0.040052 0.521791 1.477744 39 44 65
0.049190 0.532948 1.509339 44 48 66
0.059835 0.554858 1.571390 24 36 54
-0.090979 0.537546 1.499066 30 44 66
-0.081308 0.528162 1.472896 25 37 55
-0.072601 0.523650 1.460315 31 38 55
-0.064019 0.519032 1.447437 37 44 63
-0.055690 0.515453 1.437457 38 47 67
-0.047660 0.513916 1.433169 36 42 65
-0.039731 0.513088 1.430859 39 45 68
-0.031933 0.513934 1.433220 37 43 66
-0.024068 0.513934 1.433219 32 41 61
-0.016200 0.513798 1.432840 34 41 66
-0.008362 0.515280 1.436974 35 40 65
-0.000479 0.517242 1.442444 37 42 67
0.007454 0.518468 1.445863 33 44 66
0.015445 0.520423 1.451316 33 44 64
0.023485 0.522111 1.456024 34 41 61
0.031665 0.525286 1.464876 37 43 66
0.040262 0.532676 1.485487 36 42 61
0.049311 0.542560 1.513051 46 56 74
-0.090531 0.543086 1.491689 29 40 68
-0.081478 0.537363 1.475972 23 37 55
-0.072715 0.532499 1.462611 29 40 54
-0.064067 0.527376 1.448541 28 39 53
-0.055723 0.523656 1.438323 28 37 57
-0.047802 0.523345 1.437467 40 44 68
-0.039872 0.522788 1.435939 33 37 62
-0.031955 0.522161 1.434215 39 43 68
-0.024087 0.522200 1.434323 35 41 64
-0.016220 0.522299 1.434595 34 42 65
-0.008371 0.523751 1.438583 32 42 66
-0.000479 0.525558 1.443546 31 38 63
0.007459 0.526811 1.446987 33 38 63
0.015444 0.528327 1.451153 31 40 60
0.023505 0.530555 1.457271 41 48 67
0.031774 0.535157 1.469913 40 45 66
0.040451 0.543361 1.492445 44 41 66
0.049277 0.550478 1.511994 40 47 67
-0.091125 0.554885 1.501470 22 36 59
-0.081536 0.545852 1.477026 28 43 62
-0.072861 0.541608 1.465543 25 37 55
-0.064405 0.538148 1.456180 28 40 58
-0.055922 0.533442 1.443447 22 34 52
-0.047923 0.532571 1.441091 30 39 59
-0.039902 0.531054 1.436984 31 40 60
-0.031988 0.530583 1.435710 36 44 67
-0.024155 0.531569 1.438378 32 39 59
-0.016296 0.532666 1.441347 31 37 60
-0.008398 0.533342 1.443177 29 36 63
-0.000480 0.534137 1.445326 32 37 62
0.007478 0.536086 1.450601 31 35 60
0.015464 0.537017 1.453120 45 51 74
0.023510 0.538661 1.457569 40 47 67
0.031742 0.542672 1.468422 44 48 72
0.040266 0.549037 1.485644 48 52 76
0.049240 0.558351 1.510848 27 44 63
-0.081724 0.555232 1.480428 27 41 59
-0.073023 0.550871 1.468799 28 42 61
-0.064495 0.546904 1.458221 27 38 58
-0.056216 0.544209 1.451036 25 36 56
-0.048105 0.542532 1.446565 22 34 52
-0.040024 0.540598 1.441409 20 32 50
-0.032094 0.540239 1.440451 29 40 60
-0.024155 0.539455 1.438360 29 35 58
-0.016264 0.539520 1.438533 35 38 66
-0.008398 0.541269 1.443197 33 35 65
-0.000480 0.542364 1.446116 33 40 67
0.007459 0.542687 1.446979 30 38 61
0.015448 0.544417 1.451592 34 39 64
0.023515 0.546785 1.457904 39 44 69
0.031770 0.551218 1.469724 43 50 75
0.040322 0.557964 1.487713 42 51 71
0.049518 0.569840 1.519377 32 45 61
-0.082023 0.565416 1.485842 16 31 47
-0.072941 0.558302 1.467148 31 45 63
-0.064561 0.555465 1.459692 30 44 63
-0.056290 0.552903 1.452959 27 38 60
-0.048222 0.551804 1.450071 20 30 48
-0.040150 0.550233 1.445943 15 28 44
-0.032176 0.549548 1.444143 24 33 53
-0.024206 0.548508 1.441410 28 35 60
-0.016256 0.547145 1.437828 36 42 65
-0.008381 0.548038 1.440177 30 40 64
-0.000479 0.549222 1.443287 35 42 67
0.007464 0.551004 1.447969 31 39 62
0.015453 0.552562 1.452065 42 48 71
0.023533 0.555200 1.458995 48 53 78
0.031885 0.561300 1.475027 46 50 75
0.040360 0.566652 1.489091 42 48 71
0.049307 0.575722 1.512925 53 66 82
-0.083453 0.583566 1.511742 16 30 48
-0.073227 0.568576 1.472908 24 38 56
-0.064518 0.563103 1.458730 30 44 63
-0.056331 0.561283 1.454015 22 33 53
-0.048226 0.559815 1.450212 20 29 49
-0.040205 0.558922 1.447900 17 30 46
-0.032270 0.559092 1.448341 19 27 44
-0.024249 0.557407 1.443974 28 38 56
-0.016270 0.555489 1.439005 29 41 59
-0.008387 0.556357 1.441255 32 41 61
-0.000479 0.556828 1.442476 42 46 71
0.007455 0.558215 1.446067 38 45 70
0.015402 0.558676 1.447262 34 50 73
0.023457 0.561401 1.454321 49 59 83
0.031862 0.568980 1.473955 48 52 76
0.040337 0.574506 1.488269 49 54 75
0.049193 0.582665 1.509406 53 60 75
-0.073648 0.579969 1.481366 27 39 57
-0.064498 0.570930 1.458277 33 44 66
-0.056313 0.569073 1.453535 32 43 65
-0.048263 0.568206 1.451319 26 38 56
-0.040188 0.566631 1.447298 24 34 52
-0.032213 0.566051 1.445816 30 37 56
-0.024286 0.566186 1.446160 31 37 56
-0.016296 0.564313 1.441375 34 44 68
-0.008386 0.564241 1.441191 27 36 63
-0.000480 0.565770 1.445098 39 51 79
0.007463 0.566788 1.447697 38 49 77
0.015422 0.567367 1.449177 48 55 82
0.023459 0.569422 1.454425 54 58 82
0.031891 0.577601 1.475316 48 52 76
0.040249 0.581392 1.484999 56 60 85
0.048975 0.588328 1.502716 60 67 86
0.059064 0.607291 1.551152 12 17 26
-0.073853 0.589736 1.485493 0 0 0
-0.064410 0.578143 1.456292 34 45 67
-0.056200 0.575894 1.450627 34 44 68
-0.048198 0.575397 1.449375 27 37 61
-0.040146 0.573973 1.445786 31 41 65
-0.032239 0.574445 1.446976 30 38 61
-0.024279 0.573961 1.445757 38 47 67
-0.016286 0.571861 1.440467 36 47 69
-0.008382 0.571815 1.440350 29 39 63
-0.000480 0.573453 1.444476 31 42 69
0.007448 0.573578 1.444792 32 43 71
0.015418 0.575163 1.448784 46 56 80
0.023420 0.576448 1.452021 59 65 88
0.031779 0.583644 1.470147 57 61 89
0.040224 0.589177 1.484085 68 72 101
0.049161 0.598840 1.508426 59 68 88
0.056717 0.591326 1.489499 0 0 0
-0.073334 0.593689 1.475063 26 38 56
-0.064342 0.585516 1.454756 32 42 66
-0.056149 0.583321 1.449302 33 43 67
-0.048113 0.582314 1.446801 35 44 71
-0.040151 0.581977 1.445962 29 41 65
-0.032219 0.582021 1.446071 27 40 62
-0.024241 0.580993 1.443518 25 39 61
-0.016319 0.580937 1.443379 27 41 63
-0.008389 0.580269 1.441718 25 37 61
-0.000479 0.580149 1.441421 31 42 69
0.007424 0.579614 1.440091 43 54 81
0.015366 0.581115 1.443821 40 48 77
0.023432 0.584703 1.452736 55 61 90
0.031756 0.591281 1.469080 57 63 92
0.040045 0.594659 1.477471 73 76 107
0.048876 0.603604 1.499697 85 93 116
0.058182 0.614983 1.527968 4 14 24
-0.073746 0.605163 1.483347 21 32 52
-0.064614 0.596008 1.460907 32 40 63
-0.056137 0.591154 1.449008 36 46 70
-0.048019 0.589105 1.443986 32 42 66
-0.040086 0.588964 1.443642 29 38 65
-0.032213 0.589842 1.445794 26 36 60
-0.024249 0.589093 1.443958 27 39 63
-0.016297 0.588060 1.441426 22 36 59
-0.008381 0.587560 1.440200 24 39 65
-0.000478 0.588011 1.441304 30 42 66
0.007424 0.587503 1.440061 45 54 81
0.015304 0.586668 1.438014 44 50 79
0.023369 0.591097 1.448870 52 56 85
0.031665 0.597611 1.464837 67 69 99
0.039994 0.602007 1.475613 86 88 122
0.048639 0.608862 1.492414 100 97 123
0.059095 0.633147 1.551941 13 16 24
-0.064637 0.604238 1.461424 25 38 54
-0.056187 0.599641 1.450305 29 38 58
-0.048128 0.598384 1.447265 29 36 61
-0.040052 0.596367 1.442388 28 35 62
-0.032115 0.595950 1.441380 27 36 63
-0.024216 0.596197 1.441976 28 39 66
-0.016283 0.595454 1.440179 29 36 63
-0.008380 0.595439 1.440144 27 40 66
-0.000478 0.595130 1.439396 29 47 70
0.007422 0.595283 1.439765 37 49 73
0.015304 0.594589 1.438087 37 45 74
0.023326 0.597939 1.446189 45 56 83
0.031490 0.602309 1.456759 52 62 92
0.039911 0.608835 1.472542 77 79 113
0.048329 0.613114 1.482893 95 89 124
0.058081 0.630658 1.525324 38 40 51
-0.064906 0.614801 1.467496 24 37 53
-0.056237 0.608140 1.451599 25 36 56
-0.048101 0.605984 1.446451 29 38 65
-0.040100 0.605010 1.444126 30 38 67
-0.032194 0.605348 1.444932 31 39 68
-0.024231 0.604493 1.442891 29 36 63
-0.016318 0.604644 1.443254 34 35 63
-0.008391 0.604080 1.441907 35 39 64
-0.000479 0.604666 1.443306 30 44 66
0.007423 0.603240 1.439902 36 49 71
0.015307 0.602580 1.438325 41 50 77
0.023303 0.605286 1.444784 48 56 85
0.031522 0.610930 1.458257 48 60 88
0.039676 0.613285 1.463879 60 79 106
0.048157 0.619047 1.477632 94 96 126
0.057754 0.635431 1.516739 62 69 84
-0.065485 0.628411 1.480591 23 36 50
-0.056367 0.617529 1.454952 27 38 58
-0.048212 0.615334 1.449780 33 44 71
-0.040136 0.613482 1.445418 31 39 68
-0.032139 0.612243 1.442499 27 35 64
-0.024233 0.612474 1.443042 31 37 66
-0.016302 0.611963 1.441837 36 41 66
-0.008359 0.609662 1.436416 35 42 69
-0.000479 0.612385 1.442832 32 45 71
0.007435 0.612148 1.442273 32 44 68
0.015308 0.610526 1.438453 38 49 71
0.023261 0.612093 1.442145 51 54 82
0.031425 0.617022 1.453759 58 64 93
0.039559 0.619475 1.459538 51 63 91
0.047781 0.622257 1.466091 102 98 127
0.056617 0.631084 1.486890 73 74 95
-0.067023 0.651482 1.515358 0 0 0
-0.056577 0.627840 1.460366 27 41 60
-0.048160 0.622623 1.448231 33 42 69
-0.040106 0.620959 1.444361 25 33 62
-0.032129 0.619947 1.442006 25 34 61
-0.024201 0.619556 1.441098 32 41 68
-0.016286 0.619291 1.440481 37 47 71
-0.008372 0.618495 1.438629 36 45 72
-0.000478 0.619080 1.439991 29 38 65
0.007420 0.618813 1.439370 38 48 72
0.015301 0.618121 1.437760 31 39 62
0.023221 0.618932 1.439647 51 52 78
0.031309 0.622681 1.448367 74 76 106
0.039433 0.625491 1.454902 80 82 112
0.047487 0.626418 1.457059 92 91 123
0.056273 0.635355 1.477847 106 110 139
0.066520 0.656447 1.526906 28 38 56
-0.056958 0.640136 1.470202 0 0 0
-0.048152 0.630465 1.447992 29 39 63
-0.040120 0.629105 1.444868 26 34 63
-0.032110 0.627494 1.441167 30 41 69
-0.024181 0.626952 1.439922 33 44 72
-0.016291 0.627391 1.440932 36 44 73
-0.008376 0.626731 1.439416 40 44 73
-0.000478 0.626551 1.439001 46 48 78
0.007410 0.625821 1.437324 39 46 73
0.015293 0.625679 1.436998 42 51 78
0.023199 0.626260 1.438332 46 50 79
0.031251 0.629463 1.445691 71 73 104
0.039359 0.632285 1.452171 80 82 113
0.047428 0.633634 1.455270 79 80 114
0.055798 0.638029 1.465364 90 92 123
0.065272 0.652360 1.498277 54 63 83
-0.058047 0.660597 1.498312 0 0 0
-0.048306 0.640445 1.452606 31 37 60
-0.040073 0.636281 1.443161 26 34 63
-0.032041 0.634039 1.438077 28 36 65
-0.024153 0.634123 1.438266 34 45 73
-0.016262 0.634165 1.438362 31 39 68
-0.008353 0.632871 1.435428 43 49 78
-0.000477 0.633435 1.436707 42 46 74
0.007415 0.634133 1.438289 43 48 73
0.015256 0.632035 1.433531 38 47 74
0.023175 0.633487 1.436825 45 56 84
0.031200 0.636355 1.443330 63 69 98
0.039144 0.636753 1.444232 84 87 118
0.047246 0.639153 1.449676 88 89 123
0.055568 0.643409 1.459330 87 89 119
0.064514 0.652906 1.480868 94 101 126
0.071918 0.646415 1.466148 29 42 58
-0.048351 0.649025 1.453970 27 33 52
-0.040061 0.644003 1.442721 27 37 61
-0.032069 0.642496 1.439345 28 38 62
-0.024126 0.641298 1.436660 30 39 66
-0.016234 0.640928 1.435833 32 40 63
-0.008336 0.639489 1.432609 40 49 76
-0.000477 0.641231 1.436510 36 46 70
0.007411 0.641676 1.437507 41 48 73
0.015287 0.641213 1.436470 44 51 76
0.023156 0.640852 1.435662 54 63 90
0.031055 0.641286 1.436633 60 68 97
0.039058 0.643258 1.441053 74 77 108
0.047229 0.646870 1.449144 88 89 123
0.055411 0.649572 1.455196 95 97 128
0.064024 0.656016 1.469634 92 95 123
0.074293 0.676079 1.514579 33 42 62
-0.048568 0.659951 1.460496 16 29 45
-0.040157 0.653483 1.446182 22 35 51
-0.032116 0.651342 1.441442 27 40 56
-0.024110 0.648746 1.435698 29 40 60
-0.016216 0.648098 1.434263 27 37 61
-0.008334 0.647186 1.432245 35 47 71
-0.000476 0.647230 1.432343 34 46 70
0.007382 0.647071 1.431992 35 44 71
0.015248 0.647443 1.432813 52 62 86
0.023095 0.647013 1.431863 50 58 87
0.031019 0.648408 1.434950 63 68 99
0.039028 0.650668 1.439952 78 77 111
0.047021 0.651937 1.442760 87 86 120
0.055339 0.656702 1.453305 98 100 135
0.063856 0.662332 1.465765 89 96 129
0.073108 0.673473 1.490420 61 70 90
-0.049577 0.681840 1.490833 0 0 0
-0.040253 0.662997 1.449633 23 32 46
-0.032092 0.658767 1.440384 21 34 50
-0.024194 0.658902 1.440680 22 34 52
-0.016210 0.655708 1.433697 33 44 66
-0.008322 0.654086 1.430150 39 47 70
-0.000474 0.653516 1.428902 46 56 80
0.007366 0.653506 1.428881 35 46 73
0.015230 0.654532 1.431125 41 49 78
0.023054 0.653721 1.429350 51 57 86
0.030953 0.654890 1.431907 62 67 98
0.038901 0.656425 1.435264 71 73 107
0.046882 0.657907 1.438504 81 83 117
0.055091 0.661704 1.446805 89 96 129
0.063517 0.666814 1.457979 91 102 132
0.072557 0.676513 1.479186 85 98 120
0.083351 0.698967 1.528281 14 27 35
-0.040641 0.677428 1.463627 20 34 46
-0.032326 0.671523 1.450869 22 33 47
-0.024238 0.668020 1.443300 26 38 56
-0.016211 0.663625 1.433804 35 46 68
-0.008319 0.661682 1.429606 46 48 72
-0.000474 0.661498 1.429209 44 48 72
0.007359 0.660734 1.427558 39 50 72
0.015201 0.661089 1.428325 45 54 81
0.023006 0.660161 1.426320 51 57 86
0.030905 0.661730 1.429710 67 65 95
0.038795 0.662489 1.431350 70 72 107
0.046681 0.662949 1.432343 69 72 110
0.054942 0.667835 1.442900 88 94 129
0.063306 0.672575 1.453142 87 92 123
0.072119 0.680497 1.470258 79 83 111
0.081650 0.692916 1.497089 18 27 40
-0.041499 0.699917 1.494497 0 0 0
-0.032311 0.679177 1.450212 21 33 51
-0.024185 0.674467 1.440156 27 41 60
-0.016213 0.671591 1.434014 40 50 74
-0.008328 0.670224 1.431095 46 51 76
-0.000474 0.668539 1.427497 44 50 73
0.007364 0.668957 1.428391 44 51 76
0.015183 0.668168 1.426705 53 63 87
0.022970 0.666952 1.424109 47 56 83
0.030817 0.667669 1.425641 57 63 92
0.038670 0.668193 1.426759 63 71 100
0.046531 0.668645 1.427725 66 77 109
0.054692 0.672674 1.436327 80 88 125
0.063091 0.678240 1.448211 81 88 121
0.071994 0.687374 1.467714 82 86 115
0.081355 0.698600 1.491685 74 83 103
-0.032359 0.688148 1.452351 18 30 48
-0.024089 0.679650 1.434416 28 39 61
-0.016163 0.677349 1.429560 41 51 75
-0.008311 0.676690 1.428169 42 49 74
-0.000473 0.675616 1.425903 45 53 82
0.007349 0.675494 1.425645 43 49 78
0.015150 0.674533 1.423617 54 62 91
0.022935 0.673740 1.421943 54 64 88
0.030756 0.674141 1.422789 67 75 98
0.038658 0.675807 1.426305 71 79 108
0.046601 0.677506 1.429892 71 80 114
0.054528 0.678511 1.432012 79 87 124
0.062679 0.681706 1.438755 84 90 125
0.071239 0.688133 1.452320 88 92 121
0.081079 0.704384 1.486617 75 76 102
0.092519 0.730300 1.541315 17 25 38
-0.032874 0.707196 1.475466 19 26 43
-0.024161 0.689596 1.438746 27 34 54
-0.016136 0.684060 1.427196 42 51 78
-0.008297 0.683441 1.425904 41 50 77
-0.000472 0.681289 1.421413 40 48 77
0.007325 0.681013 1.420839 48 57 84
0.015102 0.680175 1.419089 57 68 95
0.022862 0.679372 1.417414 53 71 94
0.030662 0.679875 1.418465 66 75 102
0.038589 0.682409 1.423751 72 80 110
0.046472 0.683460 1.425943 68 74 109
0.054399 0.684747 1.428630 77 84 123
0.062450 0.687080 1.433497 81 87 122
0.070931 0.693086 1.446028 78 84 113
0.079932 0.702459 1.465583 78 81 109
0.090077 0.719256 1.500626 17 22 37
-0.024291 0.701237 1.446473 32 43 65
-0.016207 0.694919 1.433441 34 45 72
-0.008307 0.692059 1.427541 47 56 83
-0.000471 0.687749 1.418652 39 48 75
0.007313 0.687735 1.418623 49 58 85
0.015072 0.686563 1.416204 60 64 92
0.022807 0.685483 1.413978 62 64 94
0.030590 0.686038 1.415123 65 67 97
0.038441 0.687574 1.418290 64 76 104
0.046172 0.686819 1.416732 60 70 100
0.054130 0.689163 1.421569 70 79 112
0.062320 0.693501 1.430516 73 82 116
0.070727 0.699011 1.441882 71 77 112
0.079605 0.707598 1.459595 68 73 104
0.090177 0.728299 1.502297 21 31 49
-0.024369 0.711459 1.451135 27 38 58
-0.016238 0.704153 1.436232 40 47 72
-0.008309 0.700103 1.427973 40 51 78
-0.000471 0.694897 1.417354 41 50 77
0.007300 0.694296 1.416127 41 50 77
0.015032 0.692515 1.412495 52 56 85
0.022773 0.692215 1.411884 56 60 88
0.030581 0.693594 1.414697 57 64 91
0.038319 0.693160 1.413811 52 60 89
0.046061 0.692911 1.413304 57 61 90
0.053915 0.694189 1.415910 66 77 105
0.061972 0.697434 1.422528 64 74 104
0.070566 0.705312 1.438597 76 80 115
0.079254 0.712454 1.453164 74 83 116
0.089281 0.729219 1.487358 48 59 79
0.100316 0.750732 1.531237 16 25 34
-0.024411 0.720664 1.453640 37 49 67
-0.016202 0.710426 1.432990 35 46 68
-0.008297 0.706854 1.425784 41 51 75
-0.000472 0.704889 1.421821 40 50 74
0.007324 0.704382 1.420797 47 54 79
0.015069 0.701983 1.415960 39 47 70
0.022783 0.700274 1.412511 47 58 80
0.030534 0.700294 1.412553 50 58 81
0.038330 0.701106 1.414190 53 57 85
0.046199 0.702765 1.417537 51 55 84
0.054022 0.703351 1.418718 50 58 87
0.061899 0.704400 1.420835 56 68 96
0.070046 0.707951 1.427997 71 78 111
0.078827 0.716540 1.445323 65 70 103
0.088370 0.729862 1.472194 60 62 93
0.099133 0.750179 1.513175 18 29 37
-0.024250 0.723814 1.444013 38 51 67
-0.016182 0.717395 1.431207 34 44 62
-0.008288 0.713928 1.424289 38 49 71
-0.000471 0.711754 1.419953 37 48 68
0.007296 0.709448 1.415352 38 49 71
0.015047 0.708734 1.413928 39 50 70
0.022712 0.705810 1.408094 43 55 73
0.030509 0.707463 1.411391 40 52 70
0.038350 0.709237 1.414932 39 49 73
0.046109 0.709170 1.414797 48 55 82
0.053809 0.708342 1.413145 43 49 78
0.061762 0.710627 1.417705 52 60 89
0.069855 0.713835 1.424105 53 62 95
0.078643 0.722780 1.441949 58 62 97
0.087727 0.732571 1.461483 58 62 90
0.098362 0.752585 1.501411 20 35 44
-0.024169 0.729307 1.439216 35 45 63
-0.016214 0.726687 1.434047 35 42 61
-0.008307 0.723432 1.427623 34 46 64
-0.000471 0.719705 1.420267 38 49 71
0.007306 0.718143 1.417185 35 45 69
0.015044 0.716319 1.413585 40 52 70
0.022731 0.714138 1.409281 40 52 70
0.030406 0.712785 1.406612 41 53 71
0.038234 0.714838 1.410664 39 49 73
0.046177 0.717993 1.416889 43 47 76
0.053853 0.716671 1.414280 41 45 74
0.061688 0.717542 1.415998 45 51 80
0.069564 0.718640 1.418165 47 55 84
0.077941 0.724171 1.429080 51 61 91
0.087226 0.736362 1.453137 47 55 84
0.096881 0.749365 1.478798 35 48 62
-0.024030 0.732957 1.430925 27 41 53
-0.016118 0.730244 1.425628 40 53 69
-0.008275 0.728398 1.422024 40 52 70
-0.000470 0.725572 1.416507 41 47 70
0.007309 0.726219 1.417771 46 50 74
0.015044 0.724073 1.413581 40 47 66
0.022697 0.720800 1.407190 39 49 67
0.030358 0.719360 1.404379 37 45 68
0.038284 0.723530 1.412520 41 48 73
0.045994 0.722884 1.411259 33 37 66
0.053637 0.721533 1.408621 39 43 72
0.061535 0.723516 1.412493 38 45 72
0.069620 0.727003 1.419301 36 45 72
0.077556 0.728403 1.422033 42 54 82
0.087135 0.743554 1.451612 43 53 77
0.098279 0.768407 1.500131 35 48 64
-0.023894 0.736629 1.422850 0 0 0
-0.016105 0.737468 1.424471 0 0 0
-0.008265 0.735322 1.420326 0 0 0
-0.000470 0.732699 1.415260 0 0 0
0.007294 0.732479 1.414835 0 0 0
0.015004 0.729912 1.409876 38 48 65
0.022748 0.730163 1.410361 33 43 61
0.030550 0.731669 1.413270 34 45 65
0.038150 0.728721 1.407577 35 46 66
0.045899 0.729115 1.408338 33 42 62
0.053425 0.726381 1.403056 36 40 65
0.061449 0.730247 1.410525 38 45 72
0.069457 0.733073 1.415982 32 43 71
0.077778 0.738312 1.426102 31 42 70
0.087102 0.751233 1.451059 39 44 69
0.097601 0.771283 1.489789 33 41 58
-0.024273 0.756247 1.445425 0 0 0
-0.016194 0.749379 1.432298 0 0 0
-0.008247 0.741476 1.417193 0 0 0
-0.000470 0.739986 1.414346 0 0 0
0.007265 0.737372 1.409349 0 0 0
0.014976 0.736257 1.407218 0 0 0
0.022752 0.738029 1.410605 0 0 0
0.030569 0.739890 1.414163 0 0 0
0.038166 0.736746 1.408153 0 0 0
0.045896 0.736801 1.408258 0 0 0
0.053578 0.736177 1.407065 0 0 0
0.061383 0.737190 1.409000 0 0 0
0.069332 0.739508 1.413431 0 0 0
0.077755 0.745917 1.425681 0 0 0
0.087268 0.760648 1.453838 0 0 0
0.098410 0.785921 1.502141 0 0 0
-0.016297 0.762054 1.441408 0 0 0
-0.008285 0.752719 1.423750 0 0 0
-0.000471 0.750250 1.419080 0 0 0
0.007303 0.748927 1.416578 0 0 0
0.015006 0.745456 1.410012 0 0 0
0.022677 0.743303 1.405940 0 0 0
0.030384 0.743116 1.405587 0 0 0
0.038181 0.744758 1.408692 0 0 0
0.045916 0.744858 1.408880 0 0 0
0.053676 0.745260 1.409641 0 0 0
0.061440 0.745610 1.410304 0 0 0
0.069458 0.748622 1.416000 0 0 0
0.078444 0.760419 1.438314 0 0 0
0.087401 0.769793 1.456045 0 0 0
0.098130 0.791905 1.497869 0 0 0
-0.016314 0.770792 1.442959 0 0 0
-0.008276 0.759675 1.422147 0 0 0
-0.000472 0.760035 1.422821 0 0 0
0.007300 0.756437 1.416085 0 0 0
0.015083 0.757066 1.417264 0 0 0
0.022692 0.751503 1.406849 0 0 0
0.030414 0.751576 1.406985 0 0 0
0.038304 0.754922 1.413249 0 0 0
0.046055 0.754862 1.413137 0 0 0
0.053985 0.757333 1.417763 0 0 0
0.061576 0.755013 1.413420 0 0 0
0.069190 0.753478 1.410546 0 0 0
0.077976 0.763719 1.429717 0 0 0
0.086827 0.772677 1.446488 0 0 0
0.098171 0.800452 1.498484 0 0 0
-0.016268 0.776516 1.438894 0 0 0
-0.008299 0.769667 1.426203 0 0 0
-0.000473 0.769613 1.426102 0 0 0
0.007293 0.763466 1.414712 0 0 0
0.015050 0.763151 1.414128 0 0 0
0.022819 0.763483 1.414743 0 0 0
0.030465 0.760560 1.409327 0 0 0
0.038318 0.762952 1.413759 0 0 0
0.045898 0.760015 1.408317 0 0 0
0.053741 0.761657 1.411360 0 0 0
0.061493 0.761745 1.411523 0 0 0
0.069419 0.763735 1.415210 0 0 0
0.078244 0.774223 1.434644 0 0 0
0.087314 0.784992 1.454601 0 0 0
0.097996 0.807239 1.495823 0 0 0
-0.016097 0.776141 1.423723 0 0 0
-0.008244 0.772332 1.416736 0 0 0
-0.000474 0.777882 1.426916 0 0 0
0.007282 0.770091 1.412626 0 0 0
0.015069 0.771919 1.415979 0 0 0
0.022773 0.769710 1.411927 0 0 0
0.030352 0.765457 1.404125 0 0 0
0.038189 0.768109 1.408990 0 0 0
0.045998 0.769418 1.411391 0 0 0
0.053587 0.767196 1.407315 0 0 0
0.061392 0.768232 1.409215 0 0 0
0.069616 0.773695 1.419236 0 0 0
0.078453 0.784184 1.438477 0 0 0
0.087311 0.792945 1.454547 0 0 0
-0.016319 0.794793 1.443409 0 0 0
-0.008219 0.777758 1.412472 0 0 0
-0.000472 0.782490 1.421066 0 0 0
0.007330 0.782967 1.421932 0 0 0
0.015139 0.783316 1.422565 0 0 0
0.022840 0.779721 1.416036 0 0 0
0.030416 0.774785 1.407073 0 0 0
0.038165 0.775364 1.408124 0 0 0
0.046024 0.777601 1.412188 0 0 0
0.053902 0.779473 1.415587 0 0 0
0.061687 0.779690 1.415981 0 0 0
0.070003 0.785827 1.427126 0 0 0
0.077864 0.786126 1.427669 0 0 0
0.086861 0.796794 1.447044 0 0 0
0.094279 0.792411 1.439084 0 0 0
-0.016507 0.811945 1.460009 0 0 0
-0.008302 0.793389 1.426642 0 0 0
-0.000474 0.793614 1.427047 0 0 0
0.007328 0.790506 1.421458 0 0 0
0.015050 0.786437 1.414142 0 0 0
0.022789 0.785753 1.412912 0 0 0
0.030545 0.785821 1.413033 0 0 0
0.038303 0.785921 1.413214 0 0 0
0.045968 0.784398 1.410476 0 0 0
0.054016 0.788898 1.418568 0 0 0
0.061666 0.787186 1.415489 0 0 0
0.069901 0.792501 1.425046 0 0 0
0.077968 0.795018 1.429571 0 0 0
0.087405 0.809778 1.456113 0 0 0
0.090646 0.769468 1.383628 0 0 0
-0.008300 0.801046 1.426339 0 0 0
-0.000473 0.800251 1.424923 0 0 0
0.007293 0.794552 1.414775 0 0 0
0.014956 0.789257 1.405347 0 0 0
0.022758 0.792417 1.410972 0 0 0
0.030638 0.796008 1.417367 0 0 0
0.038508 0.797921 1.420774 0 0 0
0.046366 0.798994 1.422684 0 0 0
0.053964 0.795919 1.417209 0 0 0
0.061456 0.792252 1.410680 0 0 0
0.069185 0.792116 1.410437 0 0 0
0.078761 0.811035 1.444124 0 0 0
0.087433 0.818030 1.456580 0 0 0
-0.008371 0.815803 1.438558 0 0 0
-0.000475 0.810630 1.429437 0 0 0
0.007370 0.810737 1.429625 0 0 0
0.015016 0.800139 1.410938 0 0 0
0.022801 0.801668 1.413633 0 0 0
0.030659 0.804321 1.418311 0 0 0
0.038386 0.803167 1.416277 0 0 0
0.046354 0.806584 1.422302 0 0 0
0.053955 0.803554 1.416959 0 0 0
0.061595 0.801797 1.413862 0 0 0
0.069695 0.805754 1.420840 0 0 0
0.078905 0.820451 1.446754 0 0 0
0.088648 0.837501 1.476821 0 0 0
-0.008411 0.827623 1.445416 0 0 0
-0.000473 0.816319 1.425673 0 0 0
0.007295 0.810312 1.415184 0 0 0
0.015049 0.809702 1.414118 0 0 0
0.022910 0.813291 1.420387 0 0 0
0.030716 0.813606 1.420936 0 0 0
0.038294 0.808992 1.412879 0 0 0
0.046202 0.811712 1.417629 0 0 0
0.053769 0.808531 1.412072 0 0 0
0.062044 0.815461 1.424176 0 0 0
0.069807 0.814859 1.423124 0 0 0
0.078252 0.821539 1.434791 0 0 0
0.087910 0.838569 1.464533 0 0 0
-0.008549 0.849225 1.469065 0 0 0
-0.000474 0.825734 1.428428 0 0 0
0.007298 0.818368 1.415686 0 0 0
0.014983 0.813829 1.407834 0 0 0
0.022809 0.817466 1.414127 0 0 0
0.030548 0.816930 1.413198 0 0 0
0.038322 0.817342 1.413911 0 0 0
0.045819 0.812704 1.405888 0 0 0
0.053999 0.819774 1.418119 0 0 0
0.061751 0.819383 1.417441 0 0 0
0.069608 0.820316 1.419057 0 0 0
0.078708 0.834246 1.443153 0 0 0
0.089624 0.863108 1.493082 0 0 0
-0.000474 0.833457 1.428232 0 0 0
0.007327 0.829428 1.421328 0 0 0
0.015088 0.827357 1.417778 0 0 0
0.022743 0.822842 1.410042 0 0 0
0.030603 0.826166 1.415737 0 0 0
0.038343 0.825554 1.414689 0 0 0
0.046363 0.830165 1.422590 0 0 0
0.054199 0.830625 1.423379 0 0 0
0.061653 0.825853 1.415202 0 0 0
0.069584 0.827820 1.418572 0 0 0
0.078819 0.843343 1.445173 0 0 0
0.088710 0.862414 1.477854 0 0 0
-0.000476 0.844481 1.433642 0 0 0
0.007342 0.838976 1.424296 0 0 0
0.015230 0.842983 1.431098 0 0 0
0.022874 0.835347 1.418136 0 0 0
0.030637 0.834852 1.417295 0 0 0
0.038303 0.832449 1.413216 0 0 0
0.046322 0.837222 1.421318 0 0 0
0.054061 0.836300 1.419753 0 0 0
0.061852 0.836305 1.419763 0 0 0
0.069523 0.834878 1.417340 0 0 0
0.079072 0.854015 1.449827 0 0 0
0.088443 0.867905 1.473408 0 0 0
-0.000482 0.863528 1.452448 0 0 0
0.007406 0.854103 1.436595 0 0 0
0.015252 0.852076 1.433186 0 0 0
0.022902 0.844187 1.419916 0 0 0
0.030714 0.844746 1.420857 0 0 0
0.038751 0.850027 1.429739 0 0 0
0.046232 0.843391 1.418577 0 0 0
0.054153 0.845522 1.422162 0 0 0
0.062141 0.848040 1.426398 0 0 0
0.069190 0.838616 1.410547 0 0 0
0.077738 0.847419 1.425353 0 0 0
0.086702 0.858746 1.444405 0 0 0
-0.000500 0.903098 1.505113 0 0 0
0.007382 0.859216 1.431979 0 0 0
0.014763 0.832352 1.387206 0 0 0
0.022839 0.849625 1.415995 0 0 0
0.029771 0.826383 1.377259 0 0 0
