# .PCD v0.7 - Point Cloud Data file format
VERSION 0.7
FIELDS x y z
SIZE 4 4 4
TYPE F F F
COUNT 1 1 1
WIDTH 1716
HEIGHT 1
VIEWPOINT 0 0 0 1 0 0 0
POINTS 1716
DATA ascii
-0.039220 -0.102860 1.760289
-0.029466 -0.102529 1.754627
-0.019849 -0.102582 1.755547
-0.010233 -0.102756 1.758516
-0.000587 -0.103386 1.769295
0.009214 -0.104444 1.787398
0.033080 -0.119844 2.050947
0.044670 -0.120752 2.066489
0.056575 -0.121971 2.087346
-0.134213 -0.107379 2.028082
-0.121877 -0.106326 2.008188
-0.110013 -0.105516 1.992881
-0.098648 -0.105057 1.984226
-0.087337 -0.104551 1.974669
-0.075271 -0.102869 1.942894
-0.060128 -0.095732 1.808105
-0.049261 -0.093929 1.774044
-0.039254 -0.093281 1.761804
-0.029488 -0.092972 1.755960
-0.019859 -0.092996 1.756427
-0.010227 -0.093051 1.757453
-0.000585 -0.093346 1.763039
0.009170 -0.094184 1.778855
0.019383 -0.096430 1.821283
0.032994 -0.108307 2.045595
0.044595 -0.109229 2.063011
0.056623 -0.110611 2.089117
-0.133563 -0.095785 2.018267
-0.121751 -0.095208 2.006098
-0.109932 -0.094510 1.991405
-0.098511 -0.094039 1.981477
-0.087354 -0.093734 1.975039
-0.076131 -0.093261 1.965090
-0.049779 -0.085080 1.792707
-0.039422 -0.083972 1.769348
-0.029580 -0.083594 1.761390
-0.019864 -0.083382 1.756921
-0.010234 -0.083470 1.758777
-0.000585 -0.083670 1.762984
0.009147 -0.084212 1.774404
0.019127 -0.085297 1.797267
0.044555 -0.097821 2.061162
0.056588 -0.099088 2.087857
-0.146897 -0.086034 2.049789
-0.133881 -0.084912 2.023067
-0.121727 -0.084184 2.005706
-0.110002 -0.083637 1.992684
-0.098483 -0.083143 1.980922
-0.087326 -0.082870 1.974422
-0.076301 -0.082663 1.969469
-0.065062 -0.082118 1.956485
-0.051587 -0.077976 1.857803
-0.039859 -0.075087 1.788982
-0.029735 -0.074316 1.770619
-0.019895 -0.073855 1.759636
-0.010241 -0.073868 1.759944
-0.000585 -0.073903 1.760778
0.009077 -0.073906 1.760828
0.018900 -0.074542 1.775985
0.044622 -0.086642 2.064269
0.056650 -0.087728 2.090145
-0.146533 -0.074601 2.044705
-0.133464 -0.073581 2.016764
-0.121543 -0.073067 2.002674
-0.109912 -0.072643 1.991046
-0.098653 -0.072398 1.984340
-0.087416 -0.072110 1.976439
-0.076438 -0.071985 1.973021
-0.065491 -0.071852 1.969365
-0.054154 -0.071156 1.950277
-0.040784 -0.066785 1.830488
-0.029890 -0.064939 1.779897
-0.019959 -0.064407 1.765314
-0.010238 -0.064193 1.759447
-0.000584 -0.064222 1.760222
0.009088 -0.064316 1.762811
0.018817 -0.064512 1.768175
0.028893 -0.065358 1.791358
0.056775 -0.076427 2.094753
-0.146152 -0.063217 2.039388
-0.133389 -0.062480 2.015631
-0.121663 -0.062140 2.004662
-0.109996 -0.061765 1.992568
-0.098683 -0.061529 1.984932
-0.087339 -0.061212 1.974706
-0.076402 -0.061130 1.972085
-0.065566 -0.061117 1.971645
-0.054682 -0.061043 1.969265
-0.043232 -0.060147 1.940355
-0.030377 -0.056071 1.808877
-0.020099 -0.055104 1.777685
-0.010267 -0.054691 1.764356
-0.000585 -0.054661 1.763380
0.009095 -0.054689 1.764300
0.018811 -0.054791 1.767566
0.028643 -0.055046 1.775818
0.039149 -0.056139 1.811062
-0.145735 -0.051878 2.033579
-0.133340 -0.051401 2.014883
-0.121584 -0.051107 2.003358
-0.110086 -0.050873 1.994201
-0.098715 -0.050653 1.985578
-0.087500 -0.050469 1.978337
-0.076465 -0.050351 1.973704
-0.065589 -0.050316 1.972337
-0.054796 -0.050342 1.973381
-0.043899 -0.050263 1.970286
-0.020244 -0.045678 1.790536
-0.010300 -0.045155 1.770056
-0.000585 -0.044962 1.762495
0.009101 -0.045035 1.765328
0.018794 -0.045051 1.765949
0.028595 -0.045227 1.772872
0.038576 -0.045525 1.784553
-0.158295 -0.041083 2.051746
-0.145318 -0.040603 2.027756
-0.132987 -0.040239 2.009560
-0.121450 -0.040070 2.001149
-0.109888 -0.039859 1.990607
-0.098660 -0.039736 1.984471
-0.087600 -0.039659 1.980612
-0.076511 -0.039544 1.974891
-0.065653 -0.039532 1.974257
-0.054756 -0.039485 1.971930
-0.044011 -0.039553 1.975303
-0.033069 -0.039430 1.969201
-0.010368 -0.035677 1.781746
-0.000587 -0.035389 1.767370
0.009102 -0.035352 1.765524
0.018770 -0.035316 1.763720
0.028537 -0.035426 1.769228
0.038408 -0.035578 1.776796
0.048601 -0.035906 1.793174
-0.157587 -0.029692 2.042570
-0.145092 -0.029431 2.024607
-0.133088 -0.029234 2.011074
-0.121327 -0.029060 1.999127
-0.109925 -0.028946 1.991277
-0.098546 -0.028814 1.982182
-0.087606 -0.028793 1.980737
-0.076654 -0.028762 1.978581
-0.065709 -0.028723 1.975935
-0.054770 -0.028672 1.972448
-0.044068 -0.028751 1.977869
-0.033233 -0.028767 1.978969
-0.022106 -0.028422 1.955198
-0.010521 -0.026283 1.808082
-0.000589 -0.025788 1.774027
0.009109 -0.025687 1.767043
0.018803 -0.025683 1.766805
0.028508 -0.025693 1.767473
0.038333 -0.025778 1.773313
0.048206 -0.025854 1.778578
0.058820 -0.026236 1.804825
-0.169104 -0.018518 2.046306
-0.157198 -0.018438 2.037516
-0.145059 -0.018317 2.024139
-0.132996 -0.018186 2.009687
-0.121245 -0.018079 1.997772
-0.109857 -0.018009 1.990055
-0.098652 -0.017957 1.984305
-0.087599 -0.017923 1.980592
-0.076682 -0.017911 1.979303
-0.065770 -0.017897 1.977758
-0.054842 -0.017873 1.975041
-0.044001 -0.017871 1.974863
-0.033174 -0.017877 1.975454
-0.022356 -0.017894 1.977352
-0.000596 -0.016235 1.794029
0.009152 -0.016066 1.775357
0.018815 -0.015999 1.767958
0.028475 -0.015976 1.765384
0.038235 -0.016006 1.768793
0.048056 -0.016045 1.773033
0.058165 -0.016150 1.784702
0.069736 -0.016573 1.831400
-0.168823 -0.007277 2.042903
-0.156675 -0.007234 2.030742
-0.144439 -0.007180 2.015497
-0.132723 -0.007144 2.005564
-0.121184 -0.007113 1.996757
-0.109803 -0.007086 1.989067
-0.098565 -0.007062 1.982555
-0.087433 -0.007042 1.976840
-0.076511 -0.007035 1.974896
-0.065630 -0.007030 1.973566
-0.054820 -0.007033 1.974259
-0.043937 -0.007025 1.972000
-0.033145 -0.007031 1.973722
-0.022371 -0.007048 1.978669
-0.011511 -0.007047 1.978205
0.009202 -0.006359 1.785036
0.018844 -0.006308 1.770662
0.028502 -0.006295 1.767086
0.038187 -0.006293 1.766583
0.047982 -0.006306 1.770320
0.057890 -0.006327 1.776271
0.068714 -0.006428 1.804575
-0.180123 0.003934 2.043930
-0.168121 0.003916 2.034405
-0.156035 0.003893 2.022444
-0.144365 0.003878 2.014455
-0.132869 0.003865 2.007772
-0.120939 0.003836 1.992725
-0.109726 0.003826 1.987678
-0.098581 0.003817 1.982876
-0.087460 0.003806 1.977447
-0.076577 0.003805 1.976605
-0.065570 0.003795 1.971741
-0.054702 0.003792 1.970000
-0.043884 0.003791 1.969626
-0.033101 0.003794 1.971108
-0.022390 0.003812 1.980347
-0.011569 0.003827 1.988125
-0.000658 0.003815 1.981855
0.009361 0.003495 1.815940
0.018909 0.003420 1.776808
0.028477 0.003398 1.765524
0.038155 0.003398 1.765101
0.047900 0.003402 1.767293
0.057704 0.003408 1.770571
0.067938 0.003434 1.784184
-0.179671 0.015112 2.038800
-0.168016 0.015070 2.033146
-0.155657 0.014954 2.017552
-0.144030 0.014896 2.009779
-0.132558 0.014847 2.003074
-0.120857 0.014760 1.991377
-0.109569 0.014712 1.984828
-0.098480 0.014682 1.980854
-0.087517 0.014666 1.978724
-0.076462 0.014629 1.973640
-0.065499 0.014599 1.969630
-0.054693 0.014599 1.969660
-0.043894 0.014602 1.970090
-0.033139 0.014626 1.973340
-0.022384 0.014674 1.979806
-0.011608 0.014786 1.994900
-0.000668 0.014915 2.012221
0.019114 0.013312 1.796072
0.028553 0.013121 1.770239
0.038236 0.013111 1.768830
0.047976 0.013120 1.770090
0.057780 0.013141 1.772890
0.067799 0.013197 1.780550
0.079702 0.013560 1.829489
-0.179386 0.026257 2.035565
-0.167372 0.026125 2.025349
-0.155412 0.025984 2.014379
-0.143827 0.025888 2.006954
-0.132342 0.025796 1.999809
-0.120988 0.025715 1.993528
-0.109632 0.025617 1.985983
-0.098507 0.025558 1.981405
-0.087478 0.025512 1.977838
-0.076552 0.025488 1.975946
-0.065565 0.025432 1.971606
-0.054703 0.025412 1.970029
-0.043866 0.025396 1.968814
-0.033135 0.025451 1.973120
-0.022374 0.025527 1.978947
-0.011578 0.025665 1.989690
-0.000670 0.026023 2.017422
0.010470 0.026198 2.030964
0.019374 0.023482 1.820462
0.028676 0.022933 1.777863
0.038208 0.022800 1.767538
0.047910 0.022801 1.767674
0.057694 0.022835 1.770273
0.067643 0.022914 1.776438
0.078211 0.023157 1.795275
-0.179084 0.037363 2.032144
-0.167263 0.037214 2.024033
-0.155237 0.036995 2.012100
-0.143603 0.036843 2.003831
-0.132039 0.036685 1.995231
-0.120877 0.036620 1.991698
-0.109640 0.036517 1.986125
-0.098282 0.036347 1.976879
-0.087362 0.036317 1.975219
-0.076517 0.036314 1.975052
-0.065550 0.036242 1.971164
-0.054677 0.036204 1.969097
-0.043854 0.036189 1.968269
-0.033092 0.036231 1.970561
-0.022328 0.036310 1.974832
-0.011537 0.036452 1.982564
-0.000666 0.036901 2.006985
0.010544 0.037608 2.045424
0.019470 0.033638 1.829541
0.028682 0.032695 1.778241
0.038231 0.032518 1.768611
0.047894 0.032490 1.767076
0.057652 0.032525 1.768968
0.067464 0.032576 1.771741
0.077716 0.032799 1.783905
0.089143 0.033414 1.817325
-0.179334 0.048582 2.034978
-0.167161 0.048291 2.022798
-0.155143 0.048007 2.010893
-0.143521 0.047811 2.002677
-0.132065 0.047642 1.995628
-0.120753 0.047500 1.989668
-0.109565 0.047383 1.984761
-0.098313 0.047210 1.977502
-0.087262 0.047101 1.972963
-0.076458 0.047115 1.973539
-0.065535 0.047047 1.970703
-0.054636 0.046973 1.967605
-0.043889 0.047027 1.969867
-0.033098 0.047052 1.970902
-0.022328 0.047147 1.974866
-0.011525 0.047281 1.980516
-0.000664 0.047746 1.999961
0.010556 0.048887 2.047753
0.019506 0.043756 1.832850
0.028681 0.042452 1.778216
0.038259 0.042254 1.769916
0.047925 0.042213 1.768204
0.057581 0.042179 1.766787
0.067292 0.042190 1.767227
0.077332 0.042377 1.775093
0.087574 0.042622 1.785339
0.099499 0.043553 1.824351
-0.179074 0.059661 2.032028
-0.166816 0.059267 2.018618
-0.154900 0.058948 2.007741
-0.143208 0.058671 1.998317
-0.131772 0.058463 1.991202
-0.120528 0.058309 1.985957
-0.109349 0.058159 1.980857
-0.098352 0.058083 1.978286
-0.087340 0.057979 1.974718
-0.076440 0.057930 1.973053
-0.065540 0.057865 1.970843
-0.054609 0.057742 1.966654
-0.043781 0.057693 1.965007
-0.033044 0.057773 1.967710
-0.022285 0.057870 1.971022
-0.011501 0.058029 1.976449
-0.000663 0.058646 1.997441
0.010456 0.059553 2.028347
0.019420 0.053576 1.824775
0.028587 0.052038 1.772372
0.038201 0.051886 1.767213
0.047828 0.051811 1.764651
0.057434 0.051741 1.762287
0.067194 0.051811 1.764652
0.077095 0.051958 1.769651
0.087061 0.052111 1.774872
0.097664 0.052576 1.790706
-0.178731 0.070676 2.028141
-0.166662 0.070279 2.016760
-0.154693 0.069871 2.005050
-0.143011 0.069540 1.995559
-0.131809 0.069408 1.991762
-0.120498 0.069188 1.985453
-0.109235 0.068956 1.978787
-0.098174 0.068813 1.974701
-0.087261 0.068752 1.972936
-0.076303 0.068634 1.969541
-0.065474 0.068610 1.968862
-0.054571 0.068486 1.965290
-0.043766 0.068453 1.964346
-0.033027 0.068533 1.966666
-0.022251 0.068582 1.968054
-0.011473 0.068707 1.971647
-0.000660 0.069245 1.987091
0.010398 0.070291 2.017109
0.028587 0.061762 1.772354
0.038138 0.061481 1.764283
0.047767 0.061415 1.762383
0.057447 0.061425 1.762678
0.067129 0.061434 1.762944
0.076910 0.061520 1.765410
0.086908 0.061741 1.771754
0.097264 0.062146 1.783377
-0.178652 0.081768 2.027240
-0.166801 0.081413 2.018436
-0.154806 0.080932 2.006516
-0.143049 0.080512 1.996093
-0.131808 0.080336 1.991736
-0.120600 0.080151 1.987147
-0.109211 0.079796 1.978352
-0.098002 0.079509 1.971233
-0.087255 0.079572 1.972797
-0.076255 0.079390 1.968280
-0.065330 0.079239 1.964550
-0.054509 0.079179 1.963050
-0.043734 0.079172 1.962873
-0.032971 0.079190 1.963325
-0.022228 0.079299 1.966026
-0.011489 0.079635 1.974365
-0.000660 0.080139 1.986842
0.010346 0.080947 2.006882
0.028724 0.071831 1.780874
0.038209 0.071296 1.767602
0.047782 0.071107 1.762929
0.057505 0.071169 1.764467
0.067158 0.071139 1.763710
0.076873 0.071173 1.764567
0.086888 0.071446 1.771335
0.097043 0.071769 1.779331
0.107657 0.072340 1.793503
-0.178588 0.092859 2.026518
-0.166831 0.092505 2.018797
-0.154967 0.092038 2.008606
-0.142816 0.091315 1.992838
-0.131492 0.091046 1.986960
-0.120347 0.090863 1.982965
-0.109181 0.090627 1.977805
-0.097990 0.090315 1.970996
-0.087233 0.090375 1.972320
-0.076255 0.090191 1.968297
-0.065297 0.089973 1.963548
-0.054406 0.089781 1.959342
-0.043633 0.089735 1.958347
-0.032888 0.089737 1.958389
-0.022205 0.089991 1.963944
-0.011472 0.090336 1.971460
-0.000658 0.090881 1.983355
0.010305 0.091592 1.998881
0.028829 0.081901 1.787375
0.038298 0.081182 1.771694
0.047794 0.080801 1.763376
0.057446 0.080767 1.762637
0.067178 0.080840 1.764218
0.076778 0.080755 1.762376
0.086752 0.081040 1.768581
0.096884 0.081398 1.776413
0.107716 0.082226 1.794477
-0.178610 0.103991 2.026767
-0.166882 0.103614 2.019418
-0.155208 0.103219 2.011727
-0.143146 0.102487 1.997453
-0.131709 0.102117 1.990238
-0.120408 0.101795 1.983972
-0.109177 0.101475 1.977732
-0.098027 0.101167 1.971732
-0.087007 0.100935 1.967206
-0.076066 0.100740 1.963407
-0.065151 0.100523 1.959169
-0.054283 0.100305 1.954922
-0.043584 0.100368 1.956146
-0.032922 0.100587 1.960424
-0.022204 0.100763 1.963849
-0.011452 0.100972 1.967923
-0.000657 0.101558 1.979349
0.010273 0.102245 1.992726
0.021317 0.102775 2.003057
0.028999 0.092247 1.797886
0.038312 0.090937 1.772352
0.047984 0.090837 1.770386
0.057669 0.090791 1.769504
0.067438 0.090871 1.771052
0.077202 0.090925 1.772105
0.087466 0.091490 1.783120
0.097501 0.091726 1.787728
0.108185 0.092473 1.802288
-0.178703 0.115172 2.027815
-0.167169 0.114892 2.022895
-0.155309 0.114332 2.013037
-0.143642 0.113840 2.004364
-0.131864 0.113171 1.992586
-0.120246 0.112530 1.981306
-0.108922 0.112065 1.973107
-0.097816 0.111745 1.967487
-0.086776 0.111432 1.961975
-0.075960 0.111359 1.960678
-0.065110 0.111203 1.957934
-0.054273 0.111010 1.954544
-0.043599 0.111139 1.956808
-0.032932 0.111379 1.961029
-0.022235 0.111696 1.966611
-0.011461 0.111858 1.969468
-0.000657 0.112374 1.978547
0.010261 0.113047 1.990413
0.021353 0.113955 2.006396
0.038489 0.101128 1.780541
0.048250 0.101108 1.780196
0.057978 0.101039 1.778981
0.067763 0.101074 1.779601
0.077586 0.101149 1.780921
0.087685 0.101528 1.787599
0.097546 0.101583 1.788554
0.108143 0.102323 1.801587
-0.167356 0.126133 2.025153
-0.155554 0.125576 2.016219
-0.143813 0.124987 2.006760
-0.131928 0.124165 1.993555
-0.120398 0.123558 1.983820
-0.108838 0.122796 1.971584
-0.097804 0.122527 1.967252
-0.086793 0.122223 1.962370
-0.075885 0.121997 1.958747
-0.065093 0.121914 1.957416
-0.054397 0.122013 1.959001
-0.043692 0.122137 1.960997
-0.032939 0.122164 1.961429
-0.022203 0.122313 1.963826
-0.011436 0.122407 1.965326
-0.000656 0.123037 1.975440
0.010257 0.123919 1.989606
0.021319 0.124771 2.003287
0.038635 0.111319 1.787312
0.048564 0.111598 1.791786
0.058284 0.111385 1.788373
0.067998 0.111224 1.785775
0.077851 0.111300 1.787009
0.087788 0.111467 1.789685
0.097851 0.111745 1.794138
0.108271 0.112342 1.803735
-0.155897 0.136941 2.020663
-0.143989 0.136165 2.009211
-0.132168 0.135350 1.997187
-0.120486 0.134542 1.985267
-0.109010 0.133827 1.974713
-0.097808 0.133326 1.967328
-0.086829 0.133045 1.963172
-0.075903 0.132776 1.959203
-0.065135 0.132739 1.958667
-0.054322 0.132580 1.956322
-0.043604 0.132629 1.957036
-0.032910 0.132808 1.959680
-0.022202 0.133078 1.963665
-0.011427 0.133082 1.963731
-0.000655 0.133757 1.973689
0.010235 0.134556 1.985480
0.021266 0.135424 1.998280
0.038756 0.121506 1.792905
0.048873 0.122203 1.803192
0.058515 0.121677 1.795437
0.068247 0.121464 1.792293
0.078241 0.121712 1.795958
0.088342 0.122053 1.800988
0.098152 0.121963 1.799653
0.108376 0.122357 1.805474
-0.155686 0.147828 2.017927
-0.144077 0.147280 2.010443
-0.132122 0.146257 1.996487
-0.120333 0.145250 1.982738
-0.109080 0.144755 1.975978
-0.097677 0.143928 1.964692
-0.086784 0.143743 1.962159
-0.075881 0.143484 1.958636
-0.065050 0.143300 1.956118
-0.054313 0.143290 1.955979
-0.043614 0.143402 1.957512
-0.032912 0.143570 1.959808
-0.022196 0.143815 1.963143
-0.011434 0.143945 1.964920
-0.000654 0.144356 1.970540
0.010220 0.145235 1.982527
0.021259 0.146337 1.997578
0.032318 0.146786 2.003697
0.039726 0.134629 1.837754
0.049220 0.133034 1.815985
0.058750 0.132058 1.802663
0.068644 0.132064 1.802742
0.078740 0.132406 1.807409
0.089018 0.132946 1.814777
0.099024 0.133009 1.815647
0.109322 0.133419 1.821239
-0.144259 0.158511 2.012979
-0.132031 0.157104 1.995114
-0.120296 0.156082 1.982137
-0.109144 0.155688 1.977129
-0.097734 0.154800 1.965857
-0.086765 0.154475 1.961721
-0.075752 0.153969 1.955297
-0.064986 0.153882 1.954200
-0.054277 0.153920 1.954681
-0.043558 0.153944 1.954980
-0.032875 0.154151 1.957615
-0.022172 0.154422 1.961051
-0.011420 0.154536 1.962502
-0.000654 0.155066 1.969237
0.010194 0.155713 1.977443
0.021315 0.157717 2.002893
0.032833 0.160292 2.035598
0.042327 0.154190 1.958104
-0.132146 0.168198 1.996850
-0.120418 0.167127 1.984137
-0.109092 0.166457 1.976188
-0.097787 0.165677 1.966921
-0.086793 0.165292 1.962357
-0.075828 0.164863 1.957263
-0.064993 0.164623 1.954412
-0.054274 0.164637 1.954577
-0.043542 0.164610 1.954255
-0.032848 0.164757 1.955997
-0.022144 0.164973 1.958567
-0.011415 0.165235 1.961672
-0.000653 0.165767 1.967991
0.010193 0.166553 1.977323
0.021242 0.168123 1.995968
0.032679 0.170660 2.026085
0.042351 0.165027 1.959210
-0.132408 0.179509 2.000801
-0.120748 0.178502 1.989580
-0.109413 0.177823 1.982008
-0.097943 0.176750 1.970046
-0.086815 0.176106 1.962864
-0.075839 0.175630 1.957559
-0.064975 0.175298 1.953867
-0.054230 0.175222 1.953014
-0.043619 0.175644 1.957717
-0.032821 0.175348 1.954422
-0.022116 0.175500 1.956114
-0.011412 0.175955 1.961182
-0.000652 0.176300 1.965034
0.010184 0.177240 1.975506
0.021212 0.178830 1.993231
0.032595 0.181310 2.020871
0.043560 0.180795 2.015137
-0.132825 0.191088 2.007105
-0.121054 0.189900 1.994622
-0.109347 0.188585 1.980811
-0.097940 0.187554 1.969988
-0.086989 0.187250 1.966790
-0.075898 0.186515 1.959075
-0.065087 0.186339 1.957222
-0.054318 0.186240 1.956184
-0.043614 0.186364 1.957489
-0.032809 0.186003 1.953699
-0.022101 0.186107 1.954791
-0.011411 0.186698 1.960999
-0.000651 0.186739 1.961426
0.010179 0.187980 1.974463
0.021204 0.189690 1.992419
0.032604 0.192448 2.021391
0.044390 0.195509 2.053537
-0.132699 0.201910 2.005210
-0.121074 0.200878 1.994958
-0.109340 0.199441 1.980690
-0.097984 0.198454 1.970882
-0.086939 0.197928 1.965660
-0.075938 0.197369 1.960110
-0.065122 0.197186 1.958290
-0.054342 0.197061 1.957051
-0.043544 0.196791 1.954373
-0.032782 0.196561 1.952086
-0.022122 0.197021 1.956654
-0.011394 0.197158 1.958017
-0.000651 0.197307 1.959490
0.010162 0.198480 1.971142
0.021193 0.200518 1.991387
0.032650 0.203825 2.024228
0.044242 0.206086 2.046682
-0.133388 0.214018 2.015611
-0.121289 0.212200 1.998492
-0.109469 0.210557 1.983022
-0.098147 0.209616 1.974159
-0.087018 0.208903 1.967440
-0.075990 0.208266 1.961447
-0.065089 0.207824 1.957279
-0.054229 0.207366 1.952965
-0.043543 0.207511 1.954328
-0.032856 0.207740 1.956490
-0.022102 0.207562 1.954816
-0.011384 0.207724 1.956337
-0.000650 0.207965 1.958606
0.010172 0.209514 1.973196
0.021212 0.211636 1.993179
0.032644 0.214896 2.023884
0.044220 0.217207 2.045651
-0.133883 0.225914 2.023098
-0.121592 0.223724 2.003490
-0.109868 0.222245 1.990242
-0.098374 0.220958 1.978724
-0.087074 0.219841 1.968716
-0.076044 0.219185 1.962842
-0.065148 0.218763 1.959065
-0.054269 0.218241 1.954394
-0.043524 0.218138 1.953466
-0.032834 0.218327 1.955160
-0.022092 0.218193 1.953962
-0.011384 0.218464 1.956385
-0.000651 0.218813 1.959510
0.010169 0.220281 1.972656
0.021251 0.222984 1.996866
0.032929 0.227975 2.041561
0.044701 0.230919 2.067926
-0.134401 0.237932 2.030926
-0.121796 0.235111 2.006852
-0.109891 0.233216 1.990675
-0.098549 0.232227 1.982235
-0.087196 0.230965 1.971464
-0.076121 0.230188 1.964831
-0.065160 0.229556 1.959433
-0.054392 0.229485 1.958831
-0.043570 0.229101 1.955550
-0.032748 0.228461 1.950084
-0.022084 0.228831 1.953247
-0.011391 0.229337 1.957566
-0.000651 0.229731 1.960930
0.010164 0.230978 1.971571
0.021264 0.234084 1.998082
0.032937 0.239236 2.042064
-0.135410 0.250944 2.046165
-0.122089 0.246714 2.011672
-0.110097 0.244596 1.994398
-0.098554 0.243117 1.982340
-0.087211 0.241825 1.971808
-0.076218 0.241276 1.967332
-0.065257 0.240665 1.962351
-0.054465 0.240557 1.961469
-0.043589 0.239932 1.956374
-0.032813 0.239636 1.953959
-0.022099 0.239709 1.954556
-0.011380 0.239852 1.955718
-0.000651 0.240467 1.960734
0.010183 0.242256 1.975324
0.021290 0.245342 2.000482
0.032980 0.250764 2.044690
-0.136031 0.263374 2.055549
-0.122233 0.258056 2.014040
-0.110341 0.256105 1.998812
-0.098803 0.254636 1.987348
-0.087354 0.253058 1.975037
-0.076331 0.252444 1.970245
-0.065351 0.251793 1.965158
-0.054440 0.251202 1.960549
-0.043567 0.250542 1.955397
-0.032832 0.250497 1.955048
-0.022094 0.250386 1.954179
-0.011384 0.250665 1.956361
-0.000651 0.251285 1.961199
0.010186 0.253160 1.975830
0.021368 0.257264 2.007862
0.033035 0.262427 2.048157
0.044695 0.264920 2.067616
-0.136643 0.275889 2.064798
-0.122624 0.269968 2.020487
-0.110585 0.267663 2.003236
-0.098880 0.265747 1.988896
-0.087584 0.264593 1.980256
-0.076416 0.263548 1.972436
-0.065288 0.262322 1.963261
-0.054411 0.261824 1.959530
-0.043646 0.261746 1.958947
-0.032851 0.261374 1.956168
-0.022108 0.261275 1.955425
-0.011407 0.261913 1.960200
-0.000652 0.262511 1.964672
0.010204 0.264474 1.979368
0.021421 0.268941 2.012796
0.033262 0.275540 2.062186
0.043748 0.270417 2.023846
-0.122724 0.281284 2.022135
-0.110862 0.279353 2.008249
-0.099158 0.277440 1.994496
-0.087768 0.276036 1.984404
-0.076512 0.274715 1.974912
-0.065389 0.273517 1.966298
-0.054519 0.273113 1.963395
-0.043655 0.272549 1.959338
-0.032904 0.272548 1.959328
-0.022145 0.272459 1.958693
-0.011414 0.272850 1.961504
-0.000653 0.273766 1.968089
0.010219 0.275751 1.982355
0.021426 0.280059 2.013328
0.033264 0.286876 2.062332
-0.123275 0.293694 2.031224
-0.110783 0.290167 2.006830
-0.099090 0.288184 1.993113
-0.087928 0.287448 1.988027
-0.076747 0.286429 1.980979
-0.065611 0.285275 1.972994
-0.054566 0.284131 1.965085
-0.043682 0.283475 1.960547
-0.032881 0.283101 1.957958
-0.022155 0.283328 1.959531
-0.011411 0.283534 1.960956
-0.000654 0.284958 1.970800
0.010246 0.287390 1.987623
0.021454 0.291479 2.015902
0.033289 0.298420 2.063907
-0.123614 0.305678 2.036811
-0.110836 0.301321 2.007779
-0.099052 0.299008 1.992364
-0.088001 0.298604 1.989675
-0.076683 0.297054 1.979348
-0.065607 0.296081 1.972862
-0.054688 0.295574 1.969481
-0.043774 0.294852 1.964670
-0.032962 0.294568 1.962782
-0.022161 0.294165 1.960092
-0.011415 0.294401 1.961666
-0.000654 0.295633 1.969878
0.010272 0.299040 1.992578
0.021606 0.304682 2.030176
0.033514 0.311836 2.077839
-0.124450 0.318996 2.050577
-0.111327 0.313722 2.016673
-0.099466 0.311234 2.000680
-0.088161 0.310086 1.993301
-0.076762 0.308231 1.981378
-0.065704 0.307359 1.975771
-0.054702 0.306462 1.970004
-0.043908 0.306570 1.970701
-0.033014 0.305825 1.965912
-0.022165 0.304972 1.960429
-0.011427 0.305495 1.963789
-0.000655 0.307147 1.974410
0.010314 0.311246 2.000757
0.021694 0.317114 2.038481
0.033510 0.323197 2.077583
-0.126494 0.335671 2.084251
-0.111552 0.325444 2.020749
-0.099636 0.322762 2.004095
-0.088329 0.321634 1.997096
-0.076970 0.319970 1.986758
-0.065886 0.319083 1.981252
-0.054781 0.317731 1.972858
-0.043884 0.317212 1.969633
-0.033054 0.316999 1.968312
-0.022212 0.316404 1.964619
-0.011454 0.317016 1.968418
-0.000657 0.318600 1.978255
0.010317 0.322316 2.001325
0.021722 0.328722 2.041104
0.033623 0.335724 2.084582
-0.112200 0.338488 2.032493
-0.099979 0.334910 2.011012
-0.088543 0.333397 2.001926
-0.077336 0.332443 1.996199
-0.066124 0.331145 1.988400
-0.054842 0.328922 1.975055
-0.043876 0.327957 1.969259
-0.033092 0.328176 1.970573
-0.022276 0.328117 1.970218
-0.011495 0.328982 1.975416
-0.000658 0.330095 1.982096
0.010333 0.333822 2.004475
0.021796 0.341084 2.048084
0.033609 0.347022 2.083739
-0.113863 0.354823 2.062621
-0.100317 0.347112 2.017797
-0.088669 0.344874 2.004786
-0.077350 0.343456 1.996543
-0.066144 0.342164 1.989030
-0.055058 0.341098 1.982835
-0.044000 0.339717 1.974810
-0.033118 0.339254 1.972117
-0.022323 0.339647 1.974400
-0.011503 0.340040 1.976687
-0.000659 0.341382 1.984489
0.010326 0.344580 2.003078
0.021805 0.352466 2.048917
0.033495 0.357239 2.076665
-0.100608 0.359225 2.023662
-0.088833 0.356530 2.008478
-0.077492 0.355062 2.000208
-0.066187 0.353303 1.990301
-0.055152 0.352578 1.986216
-0.044190 0.352069 1.983351
-0.033230 0.351254 1.978758
-0.022364 0.351131 1.978065
-0.011533 0.351823 1.981961
-0.000661 0.353409 1.990895
0.010351 0.356438 2.007960
0.021784 0.363364 2.046980
0.033387 0.367437 2.069922
-0.136793 0.412472 2.253951
-0.121544 0.402921 2.201759
-0.100980 0.371696 2.031132
-0.088769 0.367288 2.007041
-0.077523 0.366186 2.001021
-0.066277 0.364723 1.993028
-0.055160 0.363527 1.986493
-0.044224 0.363234 1.984891
-0.033245 0.362275 1.979648
-0.022407 0.362671 1.981813
-0.011544 0.363039 1.983823
-0.000662 0.364756 1.993207
0.010400 0.369173 2.017344
0.021847 0.375664 2.052814
0.033457 0.379599 2.074316
-0.137359 0.426597 2.263277
-0.122387 0.417880 2.217025
-0.101838 0.386097 2.048404
-0.089055 0.379521 2.013514
-0.077488 0.376997 2.000128
-0.066301 0.375793 1.993737
-0.055248 0.375023 1.989655
-0.044265 0.374473 1.986733
-0.033352 0.374345 1.986056
-0.022478 0.374726 1.988077
-0.011610 0.376071 1.995213
-0.000665 0.377759 2.004170
0.010418 0.380897 2.020819
0.021833 0.386691 2.051557
-0.137282 0.438771 2.262012
-0.123064 0.432425 2.229295
-0.101968 0.397843 2.051015
-0.089036 0.390482 2.013065
-0.077488 0.387969 2.000112
-0.066318 0.386832 1.994249
-0.055265 0.386060 1.990267
-0.044301 0.385688 1.988353
-0.033439 0.386241 1.991203
-0.022554 0.386942 1.994818
-0.011622 0.387393 1.997141
-0.000665 0.388412 2.002395
0.010405 0.391519 2.018413
0.021883 0.398863 2.056274
0.033537 0.403315 2.079223
-0.137124 0.450664 2.259410
-0.123871 0.447571 2.243906
-0.089504 0.403641 2.023658
-0.077676 0.399914 2.004975
-0.066217 0.397168 1.991207
-0.055221 0.396664 1.988683
-0.044311 0.396688 1.988800
-0.033388 0.396563 1.988174
-0.022563 0.398056 1.995660
-0.011615 0.398127 1.996017
-0.000663 0.398648 1.998625
0.010360 0.400851 2.009671
0.021723 0.407149 2.041250
0.033126 0.409649 2.053779
-0.137092 0.462954 2.258886
-0.124124 0.460826 2.248503
-0.089666 0.415496 2.027324
-0.077812 0.411633 2.008474
-0.066290 0.408543 1.993400
-0.055225 0.407608 1.988837
-0.044341 0.407871 1.990119
-0.033466 0.408420 1.992796
-0.022577 0.409255 1.996872
-0.011620 0.409243 1.996813
-0.000665 0.410286 2.001905
0.010349 0.411432 2.007493
0.021682 0.417548 2.037335
0.032953 0.418719 2.043052
-0.150015 0.477028 2.266863
-0.136869 0.474576 2.255214
-0.124182 0.473382 2.249541
-0.089636 0.426475 2.026633
-0.077681 0.421942 2.005095
-0.066276 0.419397 1.992999
-0.055194 0.418283 1.987707
-0.044278 0.418194 1.987283
-0.033480 0.419535 1.993653
-0.022574 0.420153 1.996593
-0.011619 0.420164 1.996643
-0.000664 0.420880 2.000048
0.010369 0.423258 2.011349
0.021697 0.429023 2.038743
0.032752 0.427302 2.030562
-0.149857 0.488950 2.264471
-0.136619 0.486060 2.251086
-0.124100 0.485406 2.248060
-0.089349 0.436197 2.020156
-0.077580 0.432384 2.002498
-0.066286 0.430397 1.993296
-0.055186 0.429131 1.987434
-0.044329 0.429597 1.989593
-0.033467 0.430312 1.992904
-0.022585 0.431329 1.997613
-0.011627 0.431448 1.998162
-0.000665 0.432559 2.003308
0.010398 0.435511 2.016980
0.021754 0.441368 2.044108
-0.164084 0.506941 2.289611
-0.149582 0.500457 2.260324
-0.136675 0.498616 2.252012
-0.123791 0.496504 2.242473
-0.088896 0.445011 2.009902
-0.077441 0.442578 1.998915
-0.066257 0.441141 1.992424
-0.055148 0.439732 1.986058
-0.044327 0.440492 1.989494
-0.033447 0.440977 1.991683
-0.022582 0.442231 1.997347
-0.011622 0.442203 1.997222
-0.000665 0.443506 2.003106
0.010417 0.447415 2.020761
0.021741 0.452307 2.042855
-0.162930 0.515853 2.273519
-0.149486 0.512531 2.258877
-0.136633 0.510817 2.251322
-0.123374 0.507095 2.234920
-0.102211 0.466475 2.055894
-0.088598 0.454515 2.003181
-0.077398 0.453293 1.997796
-0.066216 0.451790 1.991171
-0.055229 0.451294 1.988989
-0.044403 0.452185 1.992915
-0.033477 0.452307 1.993451
-0.022536 0.452263 1.993257
-0.011610 0.452692 1.995148
-0.000664 0.454115 2.001420
0.010445 0.459712 2.026087
0.021836 0.465556 2.051845
-0.162672 0.527491 2.269913
-0.149465 0.524852 2.258557
-0.136399 0.522273 2.247462
-0.100529 0.469893 2.022058
-0.088461 0.464783 2.000069
-0.077293 0.463626 1.995090
-0.066136 0.462160 1.988783
-0.055135 0.461422 1.985604
-0.044295 0.461998 1.988084
-0.033370 0.461763 1.987071
-0.022481 0.462066 1.988375
-0.011611 0.463674 1.995294
-0.000665 0.465664 2.003858
0.010492 0.472959 2.035250
-0.177095 0.546013 2.295422
-0.162110 0.538082 2.262077
-0.148909 0.535245 2.250150
-0.136074 0.533333 2.242113
-0.100103 0.478953 2.013500
-0.088222 0.474473 1.994670
-0.077117 0.473489 1.990533
-0.066037 0.472364 1.985802
-0.054996 0.471126 1.980596
-0.044160 0.471464 1.982019
-0.033339 0.472235 1.985260
-0.022527 0.473935 1.992407
-0.011639 0.475784 2.000181
-0.000668 0.478867 2.013141
0.010586 0.488457 2.053455
-0.175668 0.554106 2.276919
-0.161736 0.549224 2.256858
-0.148702 0.546830 2.247022
-0.135530 0.543455 2.233150
-0.099854 0.488781 2.008487
-0.088160 0.485079 1.993274
-0.076937 0.483281 1.985885
-0.065856 0.481931 1.980341
-0.054957 0.481650 1.979185
-0.044155 0.482283 1.981784
-0.033333 0.483046 1.984919
-0.022576 0.485922 1.996739
-0.011677 0.488355 2.006737
-0.000672 0.492672 2.024475
0.010570 0.498989 2.050436
-0.175403 0.565745 2.273484
-0.161808 0.561856 2.257858
-0.148759 0.559377 2.247893
-0.135099 0.553940 2.226046
-0.112708 0.508066 2.041699
-0.099453 0.497795 2.000423
-0.087967 0.494926 1.988894
-0.076810 0.493365 1.982622
-0.065775 0.492197 1.977928
-0.054864 0.491675 1.975829
-0.044109 0.492640 1.979706
-0.033280 0.493140 1.981715
-0.022556 0.496444 1.994994
-0.011705 0.500534 2.011430
-0.000672 0.503635 2.023891
-0.175701 0.579203 2.277351
-0.161682 0.573798 2.256099
-0.148627 0.571202 2.245890
-0.111244 0.512525 2.015180
-0.098938 0.506135 1.990058
-0.087567 0.503544 1.979869
-0.076669 0.503319 1.978986
-0.065669 0.502237 1.974729
-0.054772 0.501673 1.972514
-0.044005 0.502319 1.975053
-0.033208 0.502927 1.977442
-0.022570 0.507704 1.996225
-0.011745 0.513316 2.018292
-0.000674 0.516174 2.029529
-0.161595 0.585861 2.254879
-0.148153 0.581665 2.238731
-0.110480 0.519984 2.001332
-0.098627 0.515429 1.983801
-0.087397 0.513410 1.976028
-0.076442 0.512655 1.973123
-0.065506 0.511796 1.969816
-0.054691 0.511736 1.969587
-0.043949 0.512509 1.972559
-0.033231 0.514137 1.978828
-0.022549 0.518181 1.994391
-0.011820 0.527778 2.031329
-0.177818 0.611474 2.304787
-0.161973 0.599633 2.260154
-0.147547 0.591520 2.229575
-0.123695 0.540733 2.038145
-0.110052 0.528908 1.993577
-0.098452 0.525383 1.980289
-0.087089 0.522401 1.969051
-0.076300 0.522504 1.969439
-0.065440 0.522086 1.967860
-0.054573 0.521417 1.965340
-0.043930 0.523096 1.971667
-0.033251 0.525305 1.979995
-0.022555 0.529266 1.994924
-0.011825 0.539135 2.032123
-0.162092 0.612485 2.261816
-0.147314 0.602799 2.226048
-0.122719 0.547558 2.022052
-0.109804 0.538633 1.989092
-0.098229 0.535033 1.975799
-0.086999 0.532658 1.967027
-0.076191 0.532550 1.966630
-0.065294 0.531692 1.963461
-0.054543 0.531909 1.964261
-0.043953 0.534195 1.972704
-0.033251 0.536176 1.980019
-0.022570 0.540572 1.996252
-0.011706 0.544763 2.011729
-0.163045 0.628572 2.275123
-0.121727 0.554138 2.005707
-0.109369 0.547372 1.981219
-0.097961 0.544386 1.970411
-0.086887 0.542749 1.964486
-0.076120 0.542840 1.964814
-0.065275 0.542304 1.962874
-0.054631 0.543563 1.967432
-0.043940 0.544859 1.972123
-0.033204 0.546259 1.977190
-0.022596 0.552160 1.998548
-0.011710 0.555981 2.012379
-0.162920 0.640563 2.273372
-0.121344 0.563366 1.999400
-0.109264 0.557705 1.979310
-0.098021 0.555540 1.971626
-0.086927 0.553786 1.965401
-0.076036 0.553010 1.962645
-0.065230 0.552695 1.961527
-0.054571 0.553750 1.965273
-0.043959 0.555930 1.973009
-0.033298 0.558699 1.982836
-0.022652 0.564523 2.003505
-0.011844 0.573479 2.035290
-0.163360 0.654803 2.279519
-0.121111 0.573236 1.995566
-0.109232 0.568402 1.978738
-0.097783 0.564982 1.966835
-0.086959 0.564773 1.966107
-0.076051 0.563888 1.963027
-0.065212 0.563304 1.960991
-0.054547 0.564283 1.964401
-0.043875 0.565662 1.969199
-0.033257 0.568866 1.980355
-0.022669 0.575942 2.004986
-0.011885 0.586676 2.042355
-0.163790 0.669064 2.285508
-0.121284 0.585017 1.998407
-0.109235 0.579275 1.978792
-0.097860 0.576230 1.968388
-0.086957 0.575548 1.966060
-0.076095 0.574993 1.964163
-0.065234 0.574255 1.961645
-0.054603 0.575660 1.966444
-0.043976 0.577794 1.973734
-0.033276 0.580065 1.981489
-0.022616 0.585567 2.000286
-0.011796 0.593412 2.027083
-0.163542 0.680575 2.282057
-0.148072 0.667290 2.237509
-0.121859 0.598811 2.007892
-0.109395 0.590996 1.981685
-0.097931 0.587452 1.969804
-0.086909 0.586012 1.964975
-0.075970 0.584809 1.960940
-0.065268 0.585324 1.962666
-0.054690 0.587377 1.969551
-0.044026 0.589297 1.975989
-0.033303 0.591426 1.983129
-0.022672 0.598034 2.005285
-0.011643 0.596726 2.000899
-0.163619 0.693423 2.283128
-0.148461 0.681352 2.243384
-0.122357 0.612319 2.016092
-0.109334 0.601535 1.980584
-0.097931 0.598265 1.969817
-0.087016 0.597529 1.967392
-0.076147 0.596956 1.965507
-0.065298 0.596372 1.963585
-0.054614 0.597354 1.966818
-0.044025 0.600133 1.975967
-0.033347 0.603094 1.985716
-0.022707 0.609971 2.008361
-0.163702 0.706307 2.284282
-0.148969 0.696033 2.251054
-0.123577 0.629597 2.036191
-0.109216 0.611737 1.978431
-0.097966 0.609287 1.970507
-0.087034 0.608453 1.967812
-0.076186 0.608047 1.966496
-0.065481 0.608843 1.969072
-0.054728 0.609416 1.970923
-0.044026 0.610979 1.975978
-0.033389 0.614767 1.988229
-0.022823 0.624155 2.018592
-0.164152 0.720820 2.290570
-0.149566 0.711226 2.260084
-0.123868 0.642278 2.040986
-0.109557 0.624537 1.984608
-0.098073 0.620776 1.972656
-0.087114 0.619819 1.969617
-0.076189 0.618864 1.966581
-0.065504 0.619863 1.969757
-0.054802 0.621075 1.973608
-0.044086 0.622669 1.978673
-0.033506 0.627866 1.995188
-0.022708 0.632042 2.008457
-0.164120 0.733243 2.290115
-0.149940 0.725435 2.265729
-0.124361 0.656080 2.049114
-0.109800 0.636838 1.989016
-0.098155 0.632133 1.974320
-0.086997 0.629782 1.966979
-0.076159 0.629405 1.965801
-0.065569 0.631305 1.971736
-0.054893 0.632950 1.976875
-0.044148 0.634421 1.981467
-0.033571 0.640050 1.999048
-0.022840 0.646800 2.020131
-0.163847 0.744571 2.286312
-0.149789 0.737123 2.263444
-0.123904 0.664869 2.041575
-0.109617 0.646674 1.985708
-0.098144 0.642894 1.974101
-0.087085 0.641222 1.968966
-0.076288 0.641281 1.969147
-0.065535 0.641785 1.970694
-0.054835 0.643123 1.974804
-0.044194 0.645967 1.983537
-0.033642 0.652400 2.003289
-0.180095 0.773006 2.334297
-0.164115 0.758355 2.290053
-0.150155 0.751378 2.268984
-0.124142 0.677372 2.045503
-0.109605 0.657494 1.985478
-0.098337 0.655008 1.977972
-0.087139 0.652430 1.970187
-0.076320 0.652354 1.969956
-0.065693 0.654170 1.975439
-0.054911 0.654866 1.977542
-0.044277 0.658090 1.987277
-0.033844 0.667384 2.015342
-0.179864 0.784809 2.331308
-0.164087 0.770787 2.289656
-0.150076 0.763426 2.267789
-0.124220 0.689030 2.046794
-0.109768 0.669384 1.988434
-0.098217 0.665051 1.975563
-0.087099 0.662933 1.969270
-0.076403 0.663885 1.972101
-0.065781 0.665907 1.978107
-0.055014 0.666962 1.981241
-0.044435 0.671381 1.994366
-0.033909 0.679740 2.019198
-0.179155 0.794455 2.322115
-0.163900 0.782458 2.287048
-0.149907 0.774996 2.265237
-0.123990 0.698960 2.042992
-0.109862 0.680878 1.990139
-0.098295 0.676429 1.977136
-0.087150 0.674134 1.970429
-0.076461 0.675226 1.973619
-0.065863 0.677600 1.980558
-0.055185 0.679940 1.987399
-0.044584 0.684614 2.001060
-0.033971 0.692080 2.022883
-0.178631 0.804838 2.315327
-0.164277 0.796834 2.292304
-0.149910 0.787437 2.265271
-0.124006 0.710262 2.043255
-0.109937 0.692269 1.991494
-0.098558 0.689115 1.982420
-0.087441 0.687236 1.977016
-0.076578 0.687100 1.976625
-0.065874 0.688588 1.980904
-0.055259 0.691770 1.990057
-0.044646 0.696557 2.003830
-0.178377 0.816378 2.312030
-0.164214 0.809105 2.291432
-0.149980 0.800246 2.266343
-0.123759 0.720038 2.039189
-0.110020 0.703728 1.992999
-0.098507 0.699632 1.981400
-0.087358 0.697420 1.975134
-0.076470 0.696959 1.973830
-0.065952 0.700288 1.983256
-0.055373 0.704138 1.994162
-0.045062 0.714147 2.022506
-0.177909 0.826889 2.305963
-0.164333 0.822275 2.293096
-0.150202 0.813880 2.269686
-0.123537 0.729917 2.035536
-0.110087 0.715098 1.994211
-0.098447 0.710068 1.980183
-0.087297 0.707760 1.973747
-0.076691 0.709842 1.979553
-0.065980 0.711471 1.984095
-0.055462 0.716227 1.997360
-0.045285 0.728825 2.032492
-0.177493 0.837582 2.300581
-0.164271 0.834540 2.292226
-0.150164 0.826125 2.269111
-0.124124 0.744610 2.045214
-0.110141 0.726397 1.995189
-0.098510 0.721396 1.981454
-0.087591 0.721012 1.980399
-0.076896 0.722623 1.984824
-0.066099 0.723655 1.987657
-0.055722 0.730599 2.006732
-0.194670 0.870568 2.355680
-0.177684 0.851119 2.303053
-0.164178 0.846640 2.290933
-0.150157 0.838540 2.269015
-0.123787 0.753779 2.039659
-0.110234 0.737968 1.996876
-0.098523 0.732369 1.981726
-0.087575 0.731750 1.980049
-0.076915 0.733701 1.985328
-0.066202 0.735707 1.990757
-0.055864 0.743495 2.011832
-0.038997 0.858187 2.322176
-0.026384 0.862392 2.333557
-0.013729 0.871915 2.359324
-0.000792 0.881979 2.386557
0.012169 0.872353 2.360509
-0.192492 0.873608 2.329320
-0.177139 0.861106 2.295985
-0.164126 0.858939 2.290209
-0.150238 0.851450 2.270241
-0.124675 0.770454 2.054279
-0.110307 0.749423 1.998202
-0.098603 0.743842 1.983323
-0.087649 0.743238 1.981713
-0.077009 0.745504 1.987754
-0.066247 0.747134 1.992100
-0.055934 0.755491 2.014384
-0.050736 0.854045 2.277158
-0.038699 0.864262 2.304400
-0.026172 0.868186 2.314865
-0.013484 0.869037 2.317132
-0.000772 0.872073 2.325229
0.012067 0.877927 2.340837
0.025342 0.893079 2.381235
0.038695 0.899763 2.399059
0.052183 0.905388 2.414057
-0.227068 0.923031 2.425609
-0.210429 0.908654 2.387830
-0.191232 0.880588 2.314076
-0.176837 0.872216 2.292076
-0.163843 0.870000 2.286251
-0.150258 0.864017 2.270530
-0.124343 0.779647 2.048815
-0.110411 0.761106 2.000091
-0.098929 0.757218 1.989874
-0.088035 0.757434 1.990442
-0.077231 0.758594 1.993491
-0.066446 0.760351 1.998107
-0.055985 0.767244 2.016221
-0.050538 0.863158 2.268272
-0.038502 0.872448 2.292684
-0.026019 0.875745 2.301348
-0.013401 0.876324 2.302871
-0.000767 0.879157 2.310314
0.011980 0.884309 2.323853
0.024828 0.887780 2.332976
0.037724 0.890013 2.338843
0.050704 0.892592 2.345622
0.064646 0.907634 2.385150
0.092105 0.920463 2.418863
0.105615 0.922536 2.424309
0.119035 0.923446 2.426701
0.132316 0.923209 2.426079
-0.266446 0.934409 2.420608
-0.251021 0.926500 2.400118
-0.237613 0.925572 2.397713
-0.222909 0.919188 2.381176
-0.207834 0.910388 2.358380
-0.190876 0.891622 2.309766
-0.176679 0.884004 2.290032
-0.163721 0.881890 2.284555
-0.149594 0.872606 2.260505
-0.123857 0.787796 2.040802
-0.110434 0.772241 2.000507
-0.099038 0.768986 1.992075
-0.088057 0.768547 1.990938
-0.077188 0.769101 1.992372
-0.066436 0.771195 1.997797
-0.055986 0.778321 2.016256
-0.038349 0.881508 2.283564
-0.025940 0.885655 2.294309
-0.013383 0.887813 2.299897
-0.000764 0.888397 2.301410
0.011884 0.889909 2.305327
0.024601 0.892330 2.311600
0.037511 0.897744 2.325626
0.050446 0.900860 2.333698
0.064564 0.919551 2.382117
0.078368 0.928237 2.404619
0.090652 0.919004 2.380701
0.104114 0.922544 2.389870
0.117009 0.920819 2.385401
0.129714 0.918102 2.378363
-0.259460 0.922843 2.357138
-0.247541 0.926643 2.366844
-0.234764 0.927472 2.368962
-0.221310 0.925568 2.364099
-0.205893 0.914705 2.336353
-0.190280 0.901472 2.302552
-0.176411 0.895207 2.286550
-0.163265 0.891930 2.278181
-0.123039 0.793718 2.027325
-0.110345 0.782586 1.998894
-0.098983 0.779484 1.990969
-0.088053 0.779439 1.990856
-0.077133 0.779478 1.990954
-0.066575 0.783797 2.001986
-0.055934 0.788650 2.014380
-0.045910 0.806724 2.060545
-0.037948 0.884702 2.259719
-0.025753 0.891756 2.277736
-0.013337 0.897323 2.291956
-0.000762 0.898419 2.294755
0.011823 0.897939 2.293529
0.024571 0.903912 2.308784
0.037249 0.904161 2.309422
0.049794 0.901858 2.303538
0.062018 0.895846 2.288182
0.076387 0.917630 2.343824
0.089095 0.916062 2.339818
0.102592 0.921977 2.354928
0.115749 0.923854 2.359722
0.128333 0.921242 2.353050
-0.256470 0.924993 2.329975
-0.243376 0.923821 2.327022
-0.232428 0.931112 2.345388
-0.216599 0.918561 2.313773
-0.203321 0.915938 2.307166
-0.190002 0.912770 2.299186
-0.176482 0.908120 2.287473
-0.163175 0.903937 2.276936
-0.122489 0.801246 2.018268
-0.110415 0.794060 2.000166
-0.099233 0.792404 1.995995
-0.088199 0.791671 1.994150
-0.077184 0.790923 1.992266
-0.066490 0.793763 1.999420
-0.055829 0.798198 2.010590
-0.045543 0.811491 2.044073
-0.037208 0.879597 2.215627
-0.025583 0.898319 2.262785
-0.013214 0.901489 2.270771
-0.000757 0.905265 2.280282
0.011887 0.915398 2.305806
0.024398 0.910138 2.292556
0.037009 0.910926 2.294541
0.049527 0.909579 2.291150
0.062441 0.914591 2.303773
0.075315 0.917440 2.310950
0.088216 0.919740 2.316743
0.101189 0.922110 2.322713
0.113741 0.920547 2.318775
0.126585 0.921427 2.320992
-0.252215 0.922220 2.291322
-0.239885 0.923154 2.293642
-0.227295 0.923136 2.293597
-0.213483 0.917861 2.280490
-0.201801 0.921655 2.289918
-0.188408 0.917624 2.279902
-0.174377 0.909692 2.260193
-0.160347 0.900544 2.237464
-0.137503 0.836279 2.077795
-0.122766 0.814160 2.022837
-0.110688 0.807022 2.005104
-0.099225 0.803291 1.995833
-0.088231 0.802903 1.994869
-0.077232 0.802356 1.993510
-0.066462 0.804392 1.998569
-0.055764 0.808293 2.008261
-0.045331 0.818873 2.034547
-0.025521 0.908515 2.257271
-0.013153 0.909754 2.260348
-0.000756 0.916411 2.276889
0.011735 0.916238 2.276459
0.024209 0.915574 2.274810
0.036821 0.918815 2.282860
0.049507 0.921788 2.290247
0.061836 0.918257 2.281476
0.074625 0.921597 2.289774
0.086830 0.917796 2.280329
0.099937 0.923285 2.293968
0.112596 0.923878 2.295439
0.124759 0.920687 2.287513
-0.248647 0.921567 2.258904
-0.236586 0.922871 2.262099
-0.225338 0.927663 2.273844
-0.211680 0.922516 2.261227
-0.200002 0.925893 2.269506
-0.187322 0.924772 2.266759
-0.173892 0.919527 2.253903
-0.159176 0.906156 2.221129
-0.136715 0.842825 2.065893
-0.122353 0.822479 2.016022
-0.110557 0.817054 2.002724
-0.098982 0.812249 1.990946
-0.088057 0.812249 1.990947
-0.077215 0.813112 1.993062
-0.066371 0.814243 1.995834
-0.055563 0.816360 2.001023
-0.045126 0.826282 2.025344
-0.025264 0.911605 2.234483
-0.013081 0.917118 2.247997
-0.000744 0.914584 2.241787
0.011566 0.915318 2.243585
0.024005 0.920238 2.255645
0.036374 0.920030 2.255134
0.048848 0.921908 2.259739
0.061257 0.922063 2.260119
0.073713 0.922744 2.261788
0.086266 0.924269 2.265525
0.098689 0.924189 2.265329
0.111238 0.925181 2.267761
0.123355 0.922735 2.261765
-0.233244 0.922072 2.230145
-0.221164 0.922727 2.231730
-0.209668 0.926035 2.239731
-0.197761 0.927832 2.244077
-0.184167 0.921426 2.228584
-0.171259 0.917787 2.219780
-0.134951 0.843141 2.039241
-0.122270 0.832978 2.014660
-0.110626 0.828565 2.003988
-0.098879 0.822321 1.988886
-0.087887 0.821579 1.987090
-0.077237 0.824282 1.993629
-0.066307 0.824406 1.993928
-0.055455 0.825731 1.997132
-0.044805 0.831445 2.010952
-0.034268 0.843695 2.040581
-0.012951 0.920202 2.225623
-0.000736 0.916566 2.216828
0.011460 0.919114 2.222992
0.023693 0.920486 2.226310
0.035869 0.919453 2.223812
0.048284 0.923535 2.233684
0.060691 0.925823 2.239217
0.072531 0.920162 2.225526
0.084800 0.920782 2.227025
0.097686 0.927098 2.242301
0.109832 0.925772 2.239095
0.121909 0.924189 2.235265
-0.231530 0.927443 2.213757
-0.218935 0.925548 2.209233
-0.206526 0.924267 2.206176
-0.195587 0.929813 2.219413
-0.183513 0.930338 2.220667
-0.170333 0.924938 2.207778
-0.134066 0.848728 2.025868
-0.122170 0.843341 2.013011
-0.110777 0.840706 2.006721
-0.098851 0.832996 1.988317
-0.087867 0.832291 1.986633
-0.077067 0.833385 1.989246
-0.066216 0.834198 1.991186
-0.055350 0.835093 1.993322
-0.044619 0.838975 2.002589
-0.033808 0.843402 2.013155
-0.023076 0.855070 2.041006
-0.012238 0.881100 2.103139
-0.000721 0.909414 2.170722
0.011285 0.917091 2.189047
0.023427 0.922242 2.201342
0.035464 0.921158 2.198754
0.047717 0.924800 2.207448
0.059678 0.922447 2.201832
0.071611 0.920542 2.197284
0.083942 0.923562 2.204492
0.096332 0.926384 2.211229
0.108089 0.923166 2.203548
0.119713 0.919585 2.195000
0.132215 0.922780 2.202626
0.144514 0.924138 2.205868
0.156231 0.921854 2.200416
0.168466 0.922737 2.202523
0.179957 0.919700 2.195274
-0.228180 0.925992 2.181718
-0.216324 0.926487 2.182884
-0.205353 0.931051 2.193639
-0.193052 0.929778 2.190638
-0.182067 0.935096 2.203168
-0.168958 0.929486 2.189950
-0.149925 0.887933 2.092047
-0.133631 0.857054 2.019294
-0.121944 0.852806 2.009286
-0.110572 0.850142 2.003010
-0.098847 0.843874 1.988240
-0.087883 0.843350 1.987008
-0.077002 0.843592 1.987576
-0.066071 0.843271 1.986821
-0.055238 0.844321 1.989294
-0.044400 0.845797 1.992772
-0.033566 0.848356 1.998801
-0.022677 0.851294 2.005722
-0.011780 0.859215 2.024386
-0.000680 0.869050 2.047557
0.010729 0.883366 2.081289
0.034889 0.918090 2.163101
0.047220 0.927146 2.184436
0.058928 0.922796 2.174187
0.071077 0.925641 2.180892
0.083108 0.926359 2.182584
0.095201 0.927497 2.185265
0.107408 0.929372 2.189682
0.118949 0.925679 2.180980
0.131288 0.928307 2.187172
0.142572 0.923660 2.176224
0.155059 0.926922 2.183908
0.167559 0.929794 2.190675
0.179680 0.930311 2.191894
0.191334 0.928501 2.187630
0.202576 0.925023 2.179435
-0.201690 0.926266 2.154509
-0.190995 0.931763 2.167297
-0.178568 0.928981 2.160825
-0.165783 0.923809 2.148795
-0.147446 0.884536 2.057444
-0.133357 0.866353 2.015150
-0.121894 0.863476 2.008459
-0.110354 0.859435 1.999061
-0.099079 0.856790 1.992907
-0.087807 0.853515 1.985289
-0.076816 0.852431 1.982768
-0.065861 0.851452 1.980491
-0.055136 0.853658 1.985623
-0.044196 0.852795 1.983615
-0.033331 0.853297 1.984782
-0.022479 0.854766 1.988200
-0.011650 0.860736 2.002087
-0.000666 0.861982 2.004984
0.010351 0.863264 2.007965
0.021553 0.870680 2.025216
0.033943 0.904737 2.104432
0.045876 0.912397 2.122250
0.058091 0.921438 2.143279
0.069920 0.922355 2.145413
0.081640 0.921756 2.144019
0.093898 0.926626 2.155348
0.106065 0.929617 2.162305
0.116932 0.921750 2.144006
0.128971 0.923717 2.148582
0.140923 0.924782 2.151058
0.153414 0.928949 2.160751
0.165668 0.931184 2.165950
0.176922 0.927872 2.158247
0.188093 0.924572 2.150570
0.198366 0.917509 2.134142
-0.200034 0.930386 2.136822
-0.187860 0.928168 2.131726
-0.176315 0.928968 2.133564
-0.162994 0.919864 2.112654
-0.145989 0.886974 2.037117
-0.133068 0.875504 2.010773
-0.121649 0.872741 2.004427
-0.110376 0.870573 1.999447
-0.098953 0.866616 1.990360
-0.087644 0.862801 1.981598
-0.076678 0.861760 1.979206
-0.065794 0.861442 1.978477
-0.054893 0.860753 1.976893
-0.044048 0.860783 1.976963
-0.033185 0.860392 1.976066
-0.022376 0.861726 1.979128
-0.011569 0.865634 1.988104
-0.000660 0.865859 1.988621
0.010278 0.868054 1.993662
0.021211 0.867810 1.993101
0.032474 0.876619 2.013335
0.043875 0.883748 2.029708
0.055731 0.895288 2.056211
0.068431 0.914232 2.099721
0.080325 0.918488 2.109495
0.092140 0.920883 2.114995
0.104440 0.927050 2.129158
0.115935 0.925551 2.125716
0.127835 0.927264 2.129652
0.138544 0.920773 2.114743
0.150300 0.921707 2.116887
0.162886 0.927228 2.129569
0.174180 0.925152 2.124801
0.185499 0.923463 2.120920
0.196728 0.921545 2.116515
-0.197805 0.931615 2.113016
-0.184974 0.925427 2.098981
-0.172970 0.922829 2.093087
-0.159895 0.913745 2.072484
-0.144907 0.891500 2.022028
-0.132730 0.884289 2.005674
-0.121166 0.880230 1.996468
-0.110166 0.879871 1.995653
-0.098791 0.876106 1.987114
-0.087676 0.873993 1.982320
-0.076705 0.872928 1.979904
-0.065784 0.872177 1.978202
-0.054759 0.869460 1.972040
-0.043926 0.869222 1.971500
-0.033111 0.869309 1.971698
-0.022303 0.869735 1.972663
-0.011515 0.872419 1.978751
-0.000659 0.874773 1.984089
0.010229 0.874825 1.984208
0.021122 0.875043 1.984701
0.032241 0.881308 1.998911
0.043166 0.880415 1.996886
0.054513 0.886770 2.011301
0.065938 0.892023 2.023216
0.077198 0.893854 2.027368
0.090723 0.918151 2.082477
0.101279 0.910326 2.064728
