ply
format ascii 1.0
element vertex 1239
property float x
property float y
property float z
property uchar red
property uchar green
property uchar blue
end_header
-0.008228 -0.160212 1.413992 180 117 96
-0.000471 -0.160754 1.418781 171 111 99
0.007363 -0.161841 1.428369 164 113 97
0.015361 -0.163547 1.443428 160 119 116
0.023676 -0.166316 1.467868 151 118 122
0.031999 -0.167724 1.480293 150 124 124
0.040666 -0.170000 1.500383 174 150 150
0.049789 -0.173094 1.527691 199 187 187
0.059867 -0.178140 1.572228 254 255 253
-0.158852 -0.163758 1.518847 170 115 106
-0.148915 -0.162014 1.502674 177 117 105
-0.140022 -0.161268 1.495755 175 113 97
-0.131292 -0.160629 1.489825 168 105 91
-0.122735 -0.160130 1.485201 161 100 90
-0.114141 -0.159509 1.479439 136 82 82
-0.105979 -0.159442 1.478819 111 66 63
-0.097443 -0.158756 1.472449 99 53 59
-0.087799 -0.155976 1.446672 148 99 101
-0.078676 -0.153662 1.425204 156 105 95
-0.070336 -0.152535 1.414753 167 111 94
-0.062338 -0.151963 1.409445 182 119 99
-0.054318 -0.151164 1.402040 186 120 95
-0.046610 -0.151117 1.401597 192 121 94
-0.038923 -0.151133 1.401755 190 120 90
-0.031201 -0.150985 1.400380 191 121 91
-0.023569 -0.151321 1.403494 188 118 94
-0.015916 -0.151781 1.407764 176 111 90
-0.008210 -0.152115 1.410859 174 111 90
-0.000470 -0.152677 1.416069 173 116 95
0.007336 -0.153439 1.423138 166 116 104
0.015351 -0.155521 1.442453 154 115 113
0.023761 -0.158829 1.473135 136 110 110
0.032044 -0.159826 1.482381 146 118 117
0.040662 -0.161751 1.500230 164 139 137
0.049551 -0.163927 1.520410 188 176 174
0.059524 -0.168541 1.563213 251 249 249
-0.169768 -0.157825 1.542306 159 110 102
-0.157802 -0.154397 1.508807 171 116 109
-0.148861 -0.153713 1.502126 172 110 100
-0.140012 -0.153050 1.495650 175 110 96
-0.131383 -0.152560 1.490858 168 101 86
-0.122817 -0.152082 1.486193 157 93 82
-0.114484 -0.151846 1.483882 134 79 72
-0.106270 -0.151744 1.482888 117 69 65
-0.097750 -0.151152 1.477096 105 60 57
-0.087859 -0.148140 1.447667 143 98 95
-0.078777 -0.146028 1.427031 161 112 102
-0.070337 -0.144774 1.414775 161 106 97
-0.062301 -0.144143 1.408608 168 105 91
-0.054275 -0.143359 1.400941 187 120 97
-0.046502 -0.143095 1.398363 189 120 87
-0.038776 -0.142900 1.396459 193 123 94
-0.031142 -0.143029 1.397719 187 115 91
-0.023483 -0.143095 1.398364 180 109 89
-0.015843 -0.143393 1.401278 187 120 99
-0.008170 -0.143666 1.403944 177 113 95
-0.000468 -0.144396 1.411078 166 109 100
0.007320 -0.145303 1.419942 161 112 104
0.015351 -0.147609 1.442482 153 113 108
0.023778 -0.150858 1.474226 133 100 97
0.032040 -0.151673 1.482187 148 118 117
0.040472 -0.152805 1.493251 164 136 136
0.049384 -0.155058 1.515271 174 157 160
0.059231 -0.159178 1.555535 202 195 198
-0.168025 -0.147828 1.526469 166 112 111
-0.158021 -0.146321 1.510906 170 112 106
-0.148865 -0.145475 1.502170 177 116 102
-0.140047 -0.144879 1.496022 178 111 96
-0.131551 -0.144564 1.492763 175 108 87
-0.123052 -0.144203 1.489035 157 93 68
-0.114953 -0.144293 1.489963 146 86 74
-0.106654 -0.144125 1.488235 124 69 66
-0.097919 -0.143294 1.479649 109 59 59
-0.087871 -0.140216 1.447868 145 100 96
-0.078736 -0.138127 1.426299 152 106 98
-0.070260 -0.136862 1.413230 160 108 101
-0.062160 -0.136106 1.405428 176 118 106
-0.054188 -0.135454 1.398696 177 114 94
-0.046352 -0.134984 1.393847 185 115 91
-0.038714 -0.135019 1.394201 189 116 94
-0.031088 -0.135125 1.395298 191 118 98
-0.023434 -0.135136 1.395407 180 111 92
-0.015790 -0.135249 1.396574 183 117 98
-0.008139 -0.135447 1.398620 175 114 94
-0.000467 -0.136370 1.408159 170 112 106
0.007320 -0.137516 1.419983 163 112 110
0.015376 -0.139922 1.444834 147 106 104
0.023799 -0.142894 1.475521 132 98 98
0.032061 -0.143637 1.483190 146 113 117
0.040496 -0.144694 1.494110 156 125 126
0.049408 -0.146816 1.516018 167 146 148
0.059513 -0.151359 1.562925 196 187 190
-0.180328 -0.142557 1.560453 0 0 0
-0.167298 -0.138849 1.519863 163 108 103
-0.157918 -0.137940 1.509920 173 112 98
-0.149058 -0.137410 1.504116 174 112 94
-0.140061 -0.136685 1.496176 175 108 87
-0.131695 -0.136523 1.494403 174 105 78
-0.123371 -0.136385 1.492892 161 94 63
-0.115178 -0.136383 1.492875 150 87 66
-0.106841 -0.136198 1.490849 139 81 75
-0.098227 -0.135600 1.484303 127 75 69
-0.087950 -0.132390 1.449163 147 100 92
-0.078520 -0.129944 1.422390 153 105 101
-0.070267 -0.129119 1.413365 164 111 108
-0.062025 -0.128115 1.402375 168 113 100
-0.054100 -0.127573 1.396438 179 116 102
-0.046263 -0.127093 1.391183 180 109 99
-0.038644 -0.127139 1.391693 189 115 97
-0.030954 -0.126921 1.389303 180 107 87
-0.023340 -0.126972 1.389858 181 113 90
-0.015730 -0.127104 1.391307 178 114 96
-0.008115 -0.127393 1.394473 174 115 96
-0.000466 -0.128364 1.405097 168 114 103
0.007296 -0.129297 1.415305 161 113 112
0.015373 -0.131970 1.444568 143 106 110
0.023844 -0.135052 1.478306 127 90 94
0.032127 -0.135775 1.486222 145 108 112
0.040667 -0.137074 1.500435 155 124 127
0.049591 -0.139011 1.521640 160 140 139
0.059433 -0.142591 1.560830 178 167 169
-0.177610 -0.131975 1.536931 157 105 93
-0.166879 -0.130182 1.516058 162 108 101
-0.157847 -0.129597 1.509239 178 122 105
-0.148940 -0.129054 1.502924 170 105 91
-0.140206 -0.128608 1.497719 171 99 87
-0.131994 -0.128614 1.497792 168 97 77
-0.123503 -0.128331 1.494499 164 97 76
-0.115291 -0.128317 1.494341 159 98 78
-0.106861 -0.128042 1.491133 142 82 66
-0.098277 -0.127521 1.485061 142 89 79
-0.088283 -0.124909 1.454651 146 101 98
-0.078584 -0.122238 1.423541 157 108 100
-0.070100 -0.121077 1.410016 165 111 100
-0.061818 -0.120018 1.397691 167 114 94
-0.053993 -0.119673 1.393667 169 108 88
-0.046202 -0.119300 1.389332 179 110 93
-0.038530 -0.119150 1.387583 184 114 97
-0.030862 -0.118941 1.385150 182 111 91
-0.023254 -0.118906 1.384734 179 110 91
-0.015705 -0.119274 1.389030 177 111 92
-0.008097 -0.119484 1.391464 176 116 100
-0.000464 -0.119979 1.397240 163 108 103
0.007280 -0.121267 1.412230 159 112 114
0.015525 -0.125264 1.458778 136 99 101
0.023902 -0.127251 1.481916 135 96 98
0.032210 -0.127951 1.490078 140 101 103
0.040726 -0.129029 1.502622 151 122 125
0.049791 -0.131186 1.527753 155 134 136
0.059730 -0.134696 1.568621 185 177 178
-0.176725 -0.122926 1.529274 149 100 98
-0.167083 -0.122013 1.517916 165 113 100
-0.158199 -0.121586 1.512609 167 113 90
-0.149281 -0.121084 1.506364 172 111 97
-0.140640 -0.120762 1.502354 167 100 85
-0.132185 -0.120569 1.499955 170 100 83
-0.123722 -0.120343 1.497149 165 97 78
-0.115499 -0.120335 1.497046 156 92 74
-0.107079 -0.120105 1.494179 154 93 73
-0.098388 -0.119506 1.486728 148 89 80
-0.088405 -0.117089 1.456663 0 0 0
-0.078432 -0.114205 1.420787 158 107 104
-0.069939 -0.113078 1.406764 164 110 103
-0.061784 -0.112287 1.396924 172 117 104
-0.053940 -0.111915 1.392295 172 110 92
-0.046149 -0.111550 1.387754 178 110 91
-0.038424 -0.111231 1.383780 179 110 91
-0.030780 -0.111045 1.381467 183 114 95
-0.023200 -0.111049 1.381519 183 114 94
-0.015649 -0.111260 1.384148 175 109 90
-0.008062 -0.111369 1.385506 171 107 96
-0.000462 -0.111866 1.391680 162 106 101
0.007265 -0.113284 1.409319 152 102 104
0.015608 -0.117892 1.466648 142 105 107
0.023928 -0.119247 1.483506 127 93 93
0.032299 -0.120104 1.494172 137 103 104
0.040958 -0.121471 1.511175 136 109 112
0.050158 -0.123710 1.539031 139 125 126
0.061450 -0.129720 1.613803 255 252 251
-0.190102 -0.117620 1.570466 137 105 99
-0.177094 -0.114774 1.532466 106 56 80
-0.167304 -0.113834 1.519919 154 101 98
-0.158565 -0.113548 1.516106 160 101 91
-0.149747 -0.113171 1.511071 167 103 98
-0.140950 -0.112767 1.505670 168 111 79
-0.132469 -0.112581 1.503185 165 99 80
-0.124005 -0.112385 1.500569 167 101 83
-0.115523 -0.112143 1.497349 159 96 82
-0.107116 -0.111944 1.494689 163 99 88
-0.098595 -0.111583 1.489861 145 83 75
-0.088874 -0.109675 1.464389 0 0 0
-0.078249 -0.106161 1.417472 162 110 104
-0.069713 -0.105019 1.402217 167 114 104
-0.061647 -0.104390 1.393825 168 110 98
-0.053751 -0.103910 1.387414 169 106 92
-0.046007 -0.103616 1.383487 176 107 90
-0.038281 -0.103252 1.378633 176 107 90
-0.030684 -0.103144 1.377181 180 112 93
-0.023107 -0.103051 1.375942 178 111 88
-0.015583 -0.103228 1.378305 172 107 86
-0.008044 -0.103529 1.382322 170 111 92
-0.000460 -0.103867 1.386843 168 109 107
0.007252 -0.105355 1.406704 152 106 105
0.015570 -0.109571 1.462996 138 104 104
0.023972 -0.111311 1.486234 118 86 87
0.032395 -0.112238 1.498612 126 95 94
0.041085 -0.113528 1.515837 135 111 111
0.050535 -0.116131 1.550591 134 121 119
-0.177337 -0.106511 1.534567 96 63 77
-0.167718 -0.105755 1.523681 146 101 97
-0.158793 -0.105380 1.518280 156 100 95
-0.149989 -0.105049 1.513513 165 107 95
-0.141245 -0.104723 1.508818 158 96 86
-0.132740 -0.104546 1.506257 165 100 91
-0.124058 -0.104195 1.501209 162 99 85
-0.115779 -0.104158 1.500674 156 91 82
-0.107165 -0.103790 1.495373 160 95 87
-0.098571 -0.103382 1.489496 153 93 87
-0.088871 -0.101637 1.464345 0 0 0
-0.078085 -0.098177 1.414500 157 102 97
-0.069418 -0.096913 1.396284 164 110 103
-0.061358 -0.096289 1.387293 167 106 96
-0.053559 -0.095953 1.382459 170 108 92
-0.045950 -0.095905 1.381762 166 100 81
-0.038177 -0.095426 1.374869 179 111 92
-0.030617 -0.095378 1.374174 180 112 93
-0.023057 -0.095298 1.373013 182 114 95
-0.015536 -0.095373 1.374094 178 112 93
-0.008008 -0.095517 1.376172 170 108 92
-0.000459 -0.095966 1.382639 162 105 96
0.007221 -0.097226 1.400804 145 100 96
0.015582 -0.101625 1.464175 136 101 105
0.024031 -0.103410 1.489889 128 97 96
0.032510 -0.104386 1.503960 133 102 101
0.041352 -0.105895 1.525691 138 114 116
0.051090 -0.108805 1.567629 149 135 137
-0.178904 -0.098957 1.548127 119 90 93
-0.168706 -0.097968 1.532654 126 92 92
-0.159397 -0.097419 1.524058 140 92 91
-0.150375 -0.096994 1.517411 145 92 89
-0.141559 -0.096659 1.512169 151 95 90
-0.132957 -0.096438 1.508721 151 93 87
-0.124344 -0.096180 1.504676 160 102 90
-0.115834 -0.095970 1.501389 160 102 90
-0.107248 -0.095659 1.496533 156 98 86
-0.098633 -0.095269 1.490430 142 88 77
-0.088847 -0.093576 1.463937 0 0 0
-0.077751 -0.090029 1.408453 153 104 96
-0.069234 -0.089014 1.392581 157 104 94
-0.061195 -0.088440 1.383602 169 112 97
-0.053398 -0.088102 1.378310 169 108 88
-0.045778 -0.087993 1.376598 168 102 83
-0.038039 -0.087566 1.369913 184 116 97
-0.030516 -0.087549 1.369651 180 112 93
-0.022975 -0.087450 1.368109 175 106 87
-0.015490 -0.087574 1.370051 179 111 92
-0.007991 -0.087776 1.373208 167 102 93
-0.000459 -0.088342 1.382055 158 103 96
0.007218 -0.089495 1.400098 149 105 104
0.015636 -0.093915 1.469253 141 109 104
0.024154 -0.095721 1.497501 126 97 90
0.032705 -0.096710 1.512970 125 97 96
0.041818 -0.098623 1.542908 129 111 112
0.051848 -0.101690 1.590887 157 145 145
-0.180641 -0.091341 1.563163 115 92 96
-0.169117 -0.089776 1.536387 121 88 92
-0.160045 -0.089418 1.530257 135 97 97
-0.151100 -0.089095 1.524726 136 92 93
-0.141815 -0.088521 1.514913 142 95 91
-0.132987 -0.088180 1.509061 153 103 91
-0.124175 -0.087804 1.502632 154 102 86
-0.115839 -0.087734 1.501442 155 102 82
-0.107193 -0.087403 1.495766 150 96 73
-0.098664 -0.087118 1.490903 144 90 73
-0.088702 -0.085404 1.461556 0 0 0
-0.077492 -0.082027 1.403764 154 105 97
-0.069038 -0.081143 1.388643 164 111 101
-0.061133 -0.080766 1.382198 159 101 89
-0.053273 -0.080350 1.375069 168 108 92
-0.045600 -0.080127 1.371247 175 112 92
-0.037945 -0.079850 1.366518 174 107 86
-0.030425 -0.079794 1.365550 176 107 87
-0.022915 -0.079735 1.364552 179 113 88
-0.015434 -0.079767 1.365088 176 109 94
-0.007977 -0.080100 1.370789 165 100 91
-0.000458 -0.080569 1.378820 159 102 93
0.007211 -0.081740 1.398862 145 107 105
0.015664 -0.086006 1.471872 127 96 99
0.024230 -0.087779 1.502215 123 95 95
0.032831 -0.088749 1.518812 129 104 102
0.042327 -0.091255 1.561690 133 116 113
0.052338 -0.093839 1.605914 143 133 133
-0.184239 -0.084412 1.594300 0 0 0
-0.170484 -0.082004 1.548811 118 85 89
-0.160694 -0.081350 1.536457 136 101 105
-0.151212 -0.080788 1.525856 138 96 97
-0.141991 -0.080308 1.516789 144 96 94
-0.133068 -0.079947 1.509974 153 100 90
-0.124132 -0.079531 1.502102 162 102 90
-0.115702 -0.079402 1.499673 160 101 82
-0.107363 -0.079320 1.498132 165 101 83
-0.098797 -0.079044 1.492920 139 80 71
-0.088407 -0.077126 1.456686 0 0 0
-0.077252 -0.074094 1.399413 159 107 101
-0.068777 -0.073246 1.383402 158 104 97
-0.060877 -0.072875 1.376404 159 100 90
-0.053130 -0.072610 1.371388 165 105 93
-0.045453 -0.072367 1.366806 169 108 88
-0.037865 -0.072199 1.363634 172 105 84
-0.030369 -0.072167 1.363020 168 99 80
-0.022849 -0.072040 1.360630 172 101 81
-0.015400 -0.072119 1.362111 164 98 79
-0.007958 -0.072409 1.367600 157 99 80
-0.000456 -0.072761 1.374243 153 102 92
0.007204 -0.073988 1.397422 144 105 103
0.015714 -0.078177 1.476540 121 88 95
0.024275 -0.079686 1.505031 116 82 89
0.033006 -0.080844 1.526898 127 98 101
0.042488 -0.082999 1.567604 132 111 113
0.051992 -0.084465 1.595302 147 132 136
-0.171720 -0.074038 1.560035 127 95 96
-0.161201 -0.073149 1.541310 139 98 105
-0.151360 -0.072487 1.527346 150 100 104
-0.141975 -0.071977 1.516621 156 100 99
-0.133060 -0.071658 1.509891 171 108 100
-0.124318 -0.071395 1.504357 162 97 82
-0.115847 -0.071262 1.501554 162 96 77
-0.107295 -0.071055 1.497184 150 87 67
-0.098705 -0.070786 1.491520 152 95 74
-0.088258 -0.069017 1.454236 0 0 0
-0.076881 -0.066096 1.392698 153 102 99
-0.068443 -0.065336 1.376686 157 102 99
-0.060661 -0.065091 1.371514 159 100 91
-0.052928 -0.064837 1.366171 163 100 92
-0.045287 -0.064631 1.361819 167 99 86
-0.037808 -0.064621 1.361606 176 109 86
-0.030308 -0.064559 1.360299 167 98 79
-0.022839 -0.064545 1.360006 175 106 87
-0.015346 -0.064418 1.357332 164 98 79
-0.007918 -0.064581 1.360764 165 106 87
-0.000455 -0.065036 1.370353 146 94 81
0.007186 -0.066156 1.393966 130 95 91
0.015895 -0.070883 1.493556 120 89 92
0.024454 -0.071953 1.516102 119 88 89
0.033249 -0.073000 1.538156 126 99 102
0.042687 -0.074746 1.574950 136 107 122
0.052194 -0.076006 1.601512 155 135 140
-0.171582 -0.065425 1.558784 131 100 103
-0.161281 -0.064724 1.542075 150 106 105
-0.151277 -0.064071 1.526507 157 102 97
-0.141264 -0.063337 1.509019 174 115 100
-0.132504 -0.063108 1.503580 168 104 86
-0.124215 -0.063088 1.503108 168 101 80
-0.115715 -0.062951 1.499845 163 97 78
-0.107223 -0.062798 1.496176 155 95 73
-0.098668 -0.062579 1.490972 148 88 76
-0.088101 -0.060929 1.451646 0 0 0
-0.076827 -0.058413 1.391708 155 105 99
-0.068293 -0.057656 1.373672 156 102 95
-0.060485 -0.057399 1.367551 157 98 89
-0.052764 -0.057163 1.361942 160 95 86
-0.045167 -0.057007 1.358216 166 100 81
-0.037708 -0.056997 1.357988 170 103 80
-0.030261 -0.057006 1.358200 172 103 83
-0.022783 -0.056943 1.356696 178 109 89
-0.015334 -0.056926 1.356273 163 97 78
-0.007902 -0.056997 1.357984 150 90 84
-0.000454 -0.057352 1.366424 140 88 95
0.007200 -0.058620 1.396643 127 93 93
0.016006 -0.063126 1.504013 104 77 80
0.024604 -0.064025 1.525415 120 95 93
0.033308 -0.064672 1.540844 123 100 98
0.042634 -0.066022 1.573005 134 110 112
0.052064 -0.067050 1.597502 145 131 133
-0.171815 -0.056949 1.560899 142 102 103
-0.160640 -0.056039 1.535943 156 102 101
-0.150411 -0.055376 1.517765 172 112 100
-0.141135 -0.055006 1.507643 172 111 91
-0.132512 -0.054861 1.503674 170 106 82
-0.124146 -0.054810 1.502272 166 97 78
-0.115619 -0.054676 1.498601 163 97 79
-0.107209 -0.054581 1.495988 163 99 81
-0.098580 -0.054349 1.489628 155 90 76
-0.088246 -0.053051 1.454045 0 0 0
-0.076650 -0.050660 1.388516 141 94 86
-0.068346 -0.050157 1.374731 146 92 85
-0.060257 -0.049706 1.362385 153 91 85
-0.052534 -0.049473 1.355995 163 97 86
-0.045048 -0.049424 1.354651 155 87 74
-0.037568 -0.049362 1.352934 165 96 79
-0.030113 -0.049310 1.351524 165 95 78
-0.022680 -0.049273 1.350511 169 101 82
-0.015303 -0.049383 1.353523 159 94 86
-0.007889 -0.049464 1.355736 148 90 91
-0.000454 -0.049907 1.367891 136 92 93
0.007234 -0.051196 1.403214 120 89 90
0.016062 -0.055066 1.509270 112 87 91
0.024688 -0.055845 1.530626 122 95 99
0.033450 -0.056458 1.547421 122 98 100
0.042577 -0.057315 1.570912 135 114 117
0.052085 -0.058309 1.598167 151 140 142
-0.169575 -0.047754 1.540555 155 118 114
-0.159370 -0.047234 1.523799 177 115 105
-0.150004 -0.046920 1.513666 175 115 91
-0.141064 -0.046710 1.506884 173 110 82
-0.132429 -0.046581 1.502732 174 109 81
-0.123902 -0.046476 1.499327 172 105 82
-0.115593 -0.046443 1.498257 161 95 76
-0.107175 -0.046358 1.495510 155 91 73
-0.098504 -0.046140 1.488481 148 87 83
-0.088570 -0.045238 1.459387 0 0 0
-0.076787 -0.043118 1.390991 0 0 0
-0.068032 -0.042418 1.368404 142 88 81
-0.059916 -0.041992 1.354686 152 95 86
-0.052251 -0.041807 1.348696 151 91 75
-0.044847 -0.041803 1.348581 156 94 78
-0.037402 -0.041753 1.346971 152 88 70
-0.030003 -0.041742 1.346611 162 95 80
-0.022622 -0.041757 1.347102 153 92 66
-0.015260 -0.041839 1.349746 150 85 77
-0.007874 -0.041942 1.353066 143 85 79
-0.000454 -0.042372 1.366939 144 99 96
0.007288 -0.043822 1.413716 126 93 100
0.016171 -0.047102 1.519512 109 84 94
0.024826 -0.047710 1.539156 117 90 100
0.033595 -0.048174 1.554116 124 98 104
0.042597 -0.048717 1.571641 134 112 117
0.052263 -0.049708 1.603604 161 150 153
-0.180831 -0.039919 1.564803 0 0 0
-0.167693 -0.038864 1.523454 169 113 102
-0.158349 -0.038624 1.514041 176 113 92
-0.149414 -0.038463 1.507705 173 109 85
-0.140870 -0.038389 1.504815 176 109 84
-0.132354 -0.038314 1.501878 174 108 79
-0.123848 -0.038232 1.498673 175 108 77
-0.115481 -0.038185 1.496808 168 102 77
-0.107180 -0.038153 1.495586 156 91 70
-0.098682 -0.038041 1.491176 143 87 70
-0.089421 -0.037587 1.473394 0 0 0
-0.076865 -0.035521 1.392401 0 0 0
-0.067547 -0.034660 1.358665 137 85 85
-0.059551 -0.034349 1.346438 143 83 77
-0.052002 -0.034242 1.342265 163 97 92
-0.044719 -0.034305 1.344738 156 93 79
-0.037268 -0.034239 1.342139 152 89 69
-0.029963 -0.034307 1.344797 155 91 73
-0.022555 -0.034263 1.343094 151 86 71
-0.015204 -0.034305 1.344715 152 93 74
-0.007858 -0.034450 1.350418 141 92 78
-0.000453 -0.034813 1.364642 127 89 85
0.007323 -0.036239 1.420526 122 95 98
0.016208 -0.038853 1.522997 105 80 90
0.024914 -0.039404 1.544616 116 87 96
0.033708 -0.039780 1.559349 124 95 104
0.042614 -0.040109 1.572259 136 113 121
0.052300 -0.040938 1.604739 204 194 200
-0.178368 -0.030906 1.543491 0 0 0
-0.166938 -0.030368 1.516594 171 116 101
-0.157982 -0.030246 1.510529 177 113 89
-0.149512 -0.030210 1.508701 187 121 92
-0.140841 -0.030126 1.504507 179 108 81
-0.132122 -0.030020 1.499249 172 103 70
-0.123699 -0.029973 1.496871 169 99 70
-0.115245 -0.029910 1.493747 162 95 68
-0.107080 -0.029919 1.494189 150 84 65
-0.098730 -0.029873 1.491902 149 85 74
-0.089756 -0.029613 1.478928 0 0 0
-0.076507 -0.027751 1.385924 134 80 80
-0.067001 -0.026985 1.347674 145 88 87
-0.059319 -0.026855 1.341179 151 88 80
-0.051845 -0.026796 1.338213 158 89 80
-0.044580 -0.026843 1.340560 153 88 74
-0.037221 -0.026841 1.340458 155 89 78
-0.029877 -0.026851 1.340958 153 86 71
-0.022514 -0.026845 1.340682 154 88 77
-0.015180 -0.026884 1.342627 150 89 79
-0.007845 -0.026995 1.348170 137 84 81
-0.000453 -0.027298 1.363292 125 87 85
0.007364 -0.028605 1.428547 125 95 100
0.016296 -0.030661 1.531248 112 82 93
0.024921 -0.030938 1.545062 116 84 95
0.033707 -0.031223 1.559304 133 101 112
0.042773 -0.031600 1.578121 142 118 128
-0.177239 -0.022295 1.533719 150 99 103
-0.166737 -0.022019 1.514771 162 109 99
-0.157723 -0.021922 1.508054 178 114 90
-0.149145 -0.021877 1.504991 180 113 82
-0.140776 -0.021860 1.503814 172 103 70
-0.132095 -0.021789 1.498941 171 98 70
-0.123647 -0.021750 1.496237 163 96 69
-0.115354 -0.021734 1.495157 148 82 63
-0.107127 -0.021730 1.494837 151 90 70
-0.098848 -0.021713 1.493690 144 82 74
-0.089687 -0.021482 1.477777 0 0 0
-0.075973 -0.020006 1.376238 0 0 0
-0.066763 -0.019521 1.342886 146 88 82
-0.059106 -0.019426 1.336367 155 89 78
-0.051565 -0.019348 1.330985 156 87 72
-0.044422 -0.019418 1.335810 156 92 74
-0.037147 -0.019447 1.337782 153 91 73
-0.029817 -0.019453 1.338256 156 91 76
-0.022493 -0.019470 1.339389 157 91 80
-0.015174 -0.019510 1.342139 148 86 76
-0.007834 -0.019571 1.346320 140 82 83
-0.000452 -0.019795 1.361752 126 82 89
0.007428 -0.020945 1.440826 117 83 94
0.016326 -0.022300 1.534055 115 80 94
0.024959 -0.022495 1.547455 121 85 101
0.033749 -0.022695 1.561242 123 92 107
0.043170 -0.023153 1.592765 138 121 130
-0.176862 -0.013850 1.530463 126 94 95
-0.166673 -0.013702 1.514185 151 104 106
-0.157802 -0.013654 1.508807 164 105 85
-0.149022 -0.013608 1.503750 163 95 72
-0.140553 -0.013587 1.501427 165 93 69
-0.132081 -0.013563 1.498782 153 84 65
-0.123773 -0.013554 1.497766 149 78 68
-0.115432 -0.013539 1.496174 145 79 61
-0.107052 -0.013518 1.493791 142 79 65
-0.098687 -0.013495 1.491254 149 92 83
-0.088814 -0.013243 1.463403 0 0 0
-0.075018 -0.012298 1.358947 142 87 80
-0.066658 -0.012133 1.340783 151 90 80
-0.058922 -0.012056 1.332208 157 95 77
-0.051467 -0.012022 1.328452 158 92 73
-0.044243 -0.012039 1.330420 157 94 73
-0.036987 -0.012054 1.332028 156 95 75
-0.029739 -0.012079 1.334763 158 97 77
-0.022469 -0.012108 1.337956 156 93 79
-0.015132 -0.012111 1.338356 152 88 84
-0.007834 -0.012183 1.346275 132 75 83
-0.000453 -0.012338 1.363425 130 88 99
0.007556 -0.013263 1.465631 106 82 92
0.016366 -0.013916 1.537833 116 81 95
0.025058 -0.014059 1.553555 119 86 101
0.033890 -0.014188 1.567795 127 98 113
0.043334 -0.014468 1.598814 136 123 131
-0.178706 -0.005509 1.546414 0 0 0
-0.167006 -0.005405 1.517213 146 105 103
-0.157911 -0.005378 1.509849 162 104 92
-0.148956 -0.005354 1.503087 149 87 71
-0.140504 -0.005347 1.500909 151 85 67
-0.132090 -0.005339 1.498877 148 85 65
-0.124006 -0.005345 1.500581 146 83 63
-0.115529 -0.005334 1.497432 144 79 71
-0.107126 -0.005325 1.494831 141 79 69
-0.098225 -0.005287 1.484268 0 0 0
-0.084955 -0.004986 1.399809 0 0 0
-0.073990 -0.004775 1.340319 142 83 73
-0.066167 -0.004741 1.330909 159 97 79
-0.058723 -0.004730 1.327704 162 96 77
-0.051390 -0.004725 1.326466 161 92 75
-0.044181 -0.004733 1.328581 152 84 71
-0.036943 -0.004739 1.330425 154 92 76
-0.029697 -0.004748 1.332873 153 94 74
-0.022419 -0.004756 1.335006 157 95 79
-0.015085 -0.004753 1.334252 162 101 91
-0.007817 -0.004785 1.343390 148 94 93
-0.000452 -0.004846 1.360510 136 96 107
0.007549 -0.005216 1.464333 113 83 94
0.016411 -0.005493 1.542039 114 79 93
0.025135 -0.005551 1.558368 124 94 107
0.034081 -0.005616 1.576599 124 102 114
0.043863 -0.005765 1.618351 197 187 193
-0.193359 0.003075 1.597366 138 101 105
-0.179857 0.002996 1.556376 120 94 100
-0.167553 0.002930 1.522182 136 98 96
-0.157878 0.002906 1.509540 160 102 90
-0.149120 0.002896 1.504739 162 100 82
-0.140467 0.002888 1.500510 152 90 72
-0.132299 0.002890 1.501256 146 84 66
-0.124117 0.002891 1.501924 145 83 67
-0.115587 0.002884 1.498176 146 84 74
-0.107086 0.002876 1.494268 133 76 67
-0.096637 0.002811 1.460273 0 0 0
-0.082272 0.002609 1.355608 0 0 0
-0.073587 0.002566 1.333014 152 90 80
-0.065965 0.002554 1.326837 152 90 74
-0.058665 0.002553 1.326390 158 95 75
-0.051376 0.002553 1.326103 154 91 70
-0.044173 0.002557 1.328336 158 92 73
-0.036947 0.002561 1.330586 156 94 76
-0.029661 0.002562 1.331249 166 104 86
-0.022379 0.002565 1.332606 164 101 87
-0.015080 0.002567 1.333818 156 94 86
-0.007791 0.002577 1.338895 152 95 93
-0.000449 0.002602 1.351559 149 97 104
0.007497 0.002799 1.454233 118 91 101
0.016460 0.002977 1.546667 118 86 97
0.025203 0.003008 1.562544 120 90 101
0.034132 0.003039 1.578961 131 113 120
0.044368 0.003151 1.636996 255 254 255
-0.194543 0.011912 1.607150 131 103 96
-0.180424 0.011572 1.561280 121 101 100
-0.168730 0.011362 1.532872 114 96 95
-0.158591 0.011239 1.516350 137 97 102
-0.149623 0.011191 1.509815 146 91 86
-0.140852 0.011152 1.504627 129 75 64
-0.132339 0.011131 1.501705 138 83 68
-0.124056 0.011127 1.501187 140 81 72
-0.115563 0.011102 1.497876 135 80 73
-0.106492 0.011014 1.485979 0 0 0
-0.091997 0.010304 1.390162 0 0 0
-0.081422 0.009944 1.341602 144 87 85
-0.073301 0.009842 1.327844 147 80 79
-0.065830 0.009814 1.324117 158 95 81
-0.058570 0.009815 1.324259 144 83 63
-0.051369 0.009828 1.325926 152 90 66
-0.044135 0.009837 1.327197 158 92 73
-0.036870 0.009842 1.327824 161 97 79
-0.029513 0.009818 1.324630 165 102 88
-0.022281 0.009834 1.326785 163 99 88
-0.015062 0.009874 1.332195 156 95 85
-0.007776 0.009905 1.336296 151 94 92
-0.000447 0.009974 1.345668 135 89 95
0.016583 0.011549 1.558215 110 83 93
0.025325 0.011638 1.570120 117 93 105
0.034369 0.011785 1.589952 129 117 123
-0.192430 0.020506 1.589697 129 101 94
-0.180550 0.020153 1.562374 126 95 102
-0.169417 0.019853 1.539114 123 89 100
-0.159492 0.019671 1.524973 129 97 102
-0.150295 0.019563 1.516604 125 84 91
-0.141416 0.019486 1.510649 123 77 76
-0.132816 0.019441 1.507124 137 84 74
-0.124122 0.019374 1.501981 136 83 73
-0.115504 0.019311 1.497108 133 83 77
-0.104520 0.018813 1.458467 0 0 0
-0.089321 0.017410 1.349718 128 74 73
-0.080874 0.017189 1.332579 142 84 78
-0.073280 0.017123 1.327469 149 89 65
-0.065806 0.017074 1.323630 161 93 74
-0.058501 0.017061 1.322688 151 85 67
-0.051281 0.017074 1.323651 141 76 61
-0.044000 0.017067 1.323118 154 87 72
-0.036711 0.017054 1.322087 163 94 84
-0.029463 0.017057 1.322361 160 96 85
-0.022244 0.017086 1.324601 159 97 86
-0.015062 0.017185 1.332227 148 93 84
-0.007790 0.017269 1.338774 120 73 75
-0.000448 0.017425 1.350858 117 78 86
0.016618 0.020143 1.561549 113 88 98
0.025468 0.020367 1.578972 113 94 103
0.034719 0.020717 1.606119 129 118 126
-0.191757 0.029126 1.584132 0 0 0
-0.180155 0.028663 1.558955 134 103 104
-0.170338 0.028452 1.547480 132 100 105
-0.160630 0.028238 1.535848 125 94 97
-0.150907 0.027998 1.522776 130 93 97
-0.141788 0.027848 1.514626 135 91 92
-0.133028 0.027754 1.509526 126 80 73
-0.124325 0.027661 1.504437 137 91 83
-0.115033 0.027414 1.490998 0 0 0
-0.099523 0.025533 1.388730 0 0 0
-0.088428 0.024568 1.336228 139 90 74
-0.080582 0.024412 1.327757 136 77 62
-0.073114 0.024352 1.324453 157 92 71
-0.065655 0.024281 1.320605 163 93 70
-0.058369 0.024264 1.319695 148 80 61
-0.051146 0.024273 1.320187 148 83 68
-0.043879 0.024260 1.319472 162 97 82
-0.036639 0.024261 1.319497 159 95 77
-0.029465 0.024315 1.322464 151 90 80
-0.022223 0.024331 1.323318 136 80 79
-0.015087 0.024534 1.334373 121 74 76
-0.007835 0.024756 1.346438 99 65 72
0.007959 0.028385 1.543803 114 81 88
0.016632 0.028735 1.562861 114 90 98
0.025601 0.029183 1.587215 119 104 112
0.035378 0.030092 1.636641 255 253 255
-0.191367 0.037742 1.580909 136 104 105
-0.180766 0.037344 1.564247 136 105 108
-0.170495 0.036978 1.548907 126 95 98
-0.161161 0.036787 1.540922 127 95 100
-0.151557 0.036510 1.529332 128 91 93
-0.142269 0.036282 1.519762 137 99 97
-0.133230 0.036092 1.511822 128 88 83
-0.124349 0.035923 1.504731 119 80 78
-0.113637 0.035163 1.472909 0 0 0
-0.096904 0.032281 1.352191 120 68 78
-0.088132 0.031794 1.331760 141 89 76
-0.080284 0.031581 1.322849 147 86 66
-0.072874 0.031515 1.320105 157 92 64
-0.065575 0.031489 1.318985 165 96 63
-0.058315 0.031476 1.318480 150 83 52
-0.051092 0.031484 1.318785 152 87 66
-0.043836 0.031470 1.318201 158 97 77
-0.036620 0.031484 1.318791 151 92 72
-0.029449 0.031555 1.321763 140 85 76
-0.022291 0.031689 1.327380 118 75 72
-0.015164 0.032019 1.341219 110 76 86
-0.007991 0.032784 1.373230 94 65 80
-0.000506 0.036383 1.524020 113 79 89
0.007987 0.036990 1.549425 117 86 95
0.016667 0.037388 1.566103 121 99 104
0.025693 0.038029 1.592955 128 116 122
-0.191931 0.046553 1.585575 137 98 114
-0.180959 0.045976 1.565916 134 100 106
-0.170811 0.045561 1.551779 131 97 98
-0.161525 0.045344 1.544405 127 92 96
-0.152106 0.045065 1.534877 135 98 102
-0.142824 0.044795 1.525687 131 95 95
-0.133189 0.044374 1.511355 124 89 86
-0.123717 0.043955 1.497088 0 0 0
-0.108856 0.041426 1.410940 0 0 0
-0.095725 0.039218 1.335735 120 71 63
-0.087718 0.038917 1.325502 142 88 65
-0.080019 0.038711 1.318485 146 83 63
-0.072700 0.038666 1.316956 155 86 66
-0.065309 0.038569 1.313637 159 90 63
-0.058185 0.038625 1.315553 159 88 68
-0.051004 0.038654 1.316517 161 93 74
-0.043745 0.038622 1.315446 155 92 72
-0.036522 0.038618 1.315294 155 92 78
-0.029430 0.038782 1.320899 125 73 67
-0.022345 0.039067 1.330606 101 61 63
-0.015238 0.039570 1.347748 93 64 73
-0.000510 0.045067 1.534941 121 85 97
0.007987 0.045487 1.549264 122 91 98
0.016753 0.046219 1.574184 112 95 98
0.025944 0.047227 1.608525 191 183 184
-0.193632 0.055743 1.599623 139 99 104
-0.181097 0.054610 1.567105 136 102 108
-0.171556 0.054312 1.558552 129 95 96
-0.162177 0.054036 1.550645 125 88 90
-0.152848 0.053748 1.542367 127 91 97
-0.143276 0.053335 1.530513 124 90 96
-0.133510 0.052794 1.514994 127 94 98
-0.122707 0.051744 1.484861 0 0 0
-0.105021 0.047435 1.361226 0 0 0
-0.095103 0.046245 1.327060 121 72 70
-0.087397 0.046022 1.320653 142 88 71
-0.079790 0.045814 1.314712 152 89 68
-0.072549 0.045797 1.314212 149 80 63
-0.065290 0.045764 1.313260 154 85 66
-0.058021 0.045714 1.311832 153 84 65
-0.050875 0.045761 1.313177 158 91 70
-0.043704 0.045798 1.314233 149 85 67
-0.036538 0.045854 1.315859 129 70 60
-0.029466 0.046087 1.322529 116 67 69
-0.022373 0.046426 1.332268 102 64 70
-0.015386 0.047421 1.360808 92 65 69
-0.000511 0.053628 1.538931 119 88 95
0.008030 0.054283 1.557739 119 96 100
0.016894 0.055319 1.587469 121 106 110
0.026097 0.056383 1.617989 255 254 255
-0.193818 0.064582 1.601158 141 104 106
-0.181339 0.063293 1.569201 141 107 108
-0.171540 0.062858 1.558407 135 100 96
-0.162386 0.062625 1.552638 127 92 89
-0.153256 0.062377 1.546482 129 95 96
-0.143325 0.061754 1.531039 130 97 101
-0.133331 0.061025 1.512960 120 89 88
-0.119601 0.058375 1.447271 0 0 0
-0.103381 0.054047 1.339968 115 75 70
-0.094866 0.053393 1.323748 118 72 65
-0.087246 0.053176 1.318373 130 78 61
-0.079734 0.052991 1.313786 155 88 63
-0.072382 0.052886 1.311186 154 88 63
-0.065211 0.052906 1.311676 160 91 71
-0.057913 0.052814 1.309389 150 82 63
-0.050787 0.052875 1.310909 154 91 71
-0.043704 0.053009 1.314236 146 87 68
-0.036595 0.053157 1.317907 128 73 64
-0.029521 0.053442 1.324976 109 67 68
-0.022477 0.053986 1.338446 99 68 71
-0.015759 0.056218 1.393799 99 72 75
-0.008862 0.061430 1.522996 116 84 85
-0.000510 0.062025 1.537756 119 89 94
0.008032 0.062845 1.558080 122 99 107
0.016902 0.064059 1.588194 130 117 125
-0.194589 0.073660 1.607527 142 102 104
-0.182038 0.072181 1.575247 138 96 107
-0.172093 0.071639 1.563426 138 96 97
-0.162697 0.071281 1.555612 132 91 88
-0.153467 0.070960 1.548608 134 99 95
-0.143307 0.070146 1.530846 129 98 99
-0.132734 0.069016 1.506192 0 0 0
-0.115417 0.063997 1.396642 0 0 0
-0.102750 0.061025 1.331790 120 76 69
-0.094665 0.060528 1.320953 129 85 68
-0.087145 0.060340 1.316838 128 75 62
-0.079709 0.060181 1.313381 139 79 63
-0.072304 0.060016 1.309777 154 90 66
-0.065110 0.060010 1.309636 149 82 59
-0.057984 0.060072 1.310991 147 85 69
-0.050827 0.060116 1.311948 138 79 64
-0.043773 0.060316 1.316310 132 82 60
-0.036662 0.060500 1.320334 118 72 65
-0.029600 0.060874 1.328506 103 66 68
-0.022700 0.061938 1.351719 91 59 70
-0.008862 0.069785 1.522970 121 89 90
-0.000510 0.070342 1.535121 122 91 98
0.008040 0.071463 1.559589 124 103 112
0.017013 0.073251 1.598596 135 128 131
-0.181995 0.080805 1.574874 145 107 105
-0.172026 0.080186 1.562815 143 102 99
-0.162922 0.079927 1.557760 146 104 97
-0.153249 0.079344 1.546406 135 96 94
-0.143347 0.078568 1.531274 129 95 102
-0.131729 0.076696 1.494782 0 0 0
-0.112233 0.069684 1.358119 0 0 0
-0.102382 0.068088 1.327023 129 86 69
-0.094555 0.067698 1.319420 141 88 75
-0.086983 0.067440 1.314393 130 71 56
-0.079611 0.067305 1.311758 148 90 61
-0.072315 0.067213 1.309973 149 81 74
-0.065105 0.067191 1.309548 152 86 68
-0.058054 0.067347 1.312580 144 82 64
-0.050930 0.067451 1.314605 136 79 64
-0.043815 0.067603 1.317574 121 68 58
-0.036694 0.067803 1.321460 106 63 72
-0.029763 0.068540 1.335825 93 62 71
-0.023333 0.071289 1.389406 97 63 74
-0.017072 0.077473 1.509939 129 88 93
-0.008860 0.078122 1.522573 126 92 93
-0.000509 0.078635 1.532588 118 93 97
0.008037 0.079988 1.558952 122 108 112
0.017240 0.083118 1.619945 232 227 228
-0.181751 0.089327 1.572769 147 112 109
-0.172010 0.088754 1.562673 141 99 100
-0.162695 0.088352 1.555596 143 96 98
-0.153181 0.087791 1.545727 142 100 101
-0.143267 0.086922 1.530424 0 0 0
-0.110523 0.075960 1.337420 109 68 66
-0.102081 0.075148 1.323118 131 86 82
-0.094406 0.074819 1.317331 134 80 73
-0.086796 0.074492 1.311564 142 83 68
-0.079366 0.074274 1.307730 137 72 57
-0.072225 0.074309 1.308352 149 82 67
-0.065114 0.074387 1.309725 144 80 62
-0.058040 0.074532 1.312267 136 77 58
-0.050948 0.074691 1.315069 132 80 64
-0.043871 0.074929 1.319257 122 68 61
-0.036915 0.075506 1.329431 106 66 67
-0.030157 0.076874 1.353507 95 65 70
-0.024792 0.083849 1.476317 125 88 92
-0.017057 0.085683 1.508609 128 90 90
-0.008829 0.086178 1.517331 130 96 97
-0.000508 0.086919 1.530373 122 94 100
0.008034 0.088515 1.558470 129 118 121
0.017134 0.091440 1.609975 255 255 254
-0.181785 0.097975 1.573057 143 105 103
-0.172014 0.097331 1.562713 148 108 109
-0.162673 0.096874 1.555385 139 98 96
-0.153370 0.096391 1.547631 142 102 104
-0.142867 0.095053 1.526146 98 61 63
-0.109870 0.082807 1.329524 122 74 73
-0.101996 0.082339 1.322019 137 84 81
-0.094170 0.081843 1.314046 139 80 78
-0.086700 0.081598 1.310114 131 67 63
-0.079332 0.081414 1.307165 132 67 58
-0.072178 0.081435 1.307492 144 80 69
-0.065036 0.081476 1.308160 144 81 67
-0.057979 0.081646 1.310882 130 72 60
-0.050986 0.081968 1.316053 118 67 57
-0.043965 0.082344 1.322085 116 70 63
-0.037060 0.083126 1.334645 98 58 59
-0.030903 0.086387 1.387011 93 65 65
-0.025100 0.093092 1.494653 123 83 88
-0.017024 0.093782 1.505741 128 90 96
-0.008810 0.094297 1.514009 124 90 97
-0.000507 0.095049 1.526083 127 97 108
0.007974 0.096341 1.546828 137 123 129
0.016876 0.098764 1.585726 255 253 255
-0.182113 0.106799 1.575900 142 106 106
-0.172051 0.105928 1.563044 138 100 100
-0.162350 0.105199 1.552297 134 92 93
-0.152835 0.104517 1.542227 129 94 98
-0.120057 0.092326 1.362339 0 0 0
-0.109545 0.089836 1.325596 124 76 74
-0.101817 0.089436 1.319698 133 81 74
-0.094073 0.088961 1.312689 141 79 71
-0.086685 0.088772 1.309890 141 76 67
-0.079303 0.088554 1.306685 139 76 62
-0.072130 0.088551 1.306635 138 74 63
-0.065104 0.088746 1.309513 132 70 60
-0.058017 0.088897 1.311745 128 71 62
-0.051091 0.089373 1.318771 113 64 54
-0.044094 0.089861 1.325959 102 62 64
-0.037456 0.091416 1.348910 92 61 64
-0.032668 0.099366 1.466217 119 76 79
-0.025096 0.101277 1.494423 127 80 88
-0.017029 0.102075 1.506199 128 86 97
-0.008799 0.102480 1.512173 120 84 98
-0.000505 0.103081 1.521037 129 97 108
0.007946 0.104454 1.541294 138 119 128
0.016934 0.107834 1.591175 255 252 255
-0.193803 0.117287 1.601033 125 97 103
-0.181659 0.115158 1.571972 136 102 108
-0.171738 0.114296 1.560205 134 94 96
-0.162234 0.113636 1.551189 135 96 94
-0.152457 0.112701 1.538420 118 81 83
-0.118062 0.098143 1.339701 116 77 79
-0.109255 0.096852 1.322079 131 84 76
-0.101599 0.096471 1.316876 135 82 72
-0.093983 0.096072 1.311432 130 71 62
-0.086629 0.095898 1.309051 137 75 65
-0.079309 0.095731 1.306777 140 77 63
-0.072145 0.095741 1.306910 131 66 57
-0.065198 0.096070 1.311403 122 62 56
-0.058245 0.096472 1.316891 114 59 52
-0.051212 0.096837 1.321878 102 60 55
-0.044381 0.097768 1.334589 85 54 53
-0.038965 0.102800 1.403267 88 57 56
-0.033103 0.108843 1.485765 124 80 86
-0.025092 0.109457 1.494145 119 73 85
-0.016986 0.110061 1.502387 127 84 93
-0.008787 0.110620 1.510025 125 88 96
-0.000503 0.111003 1.515245 129 96 103
0.007902 0.112294 1.532876 137 115 120
0.016704 0.114984 1.569590 255 250 253
-0.193564 0.125917 1.599063 130 104 104
-0.181446 0.123639 1.570126 140 104 110
-0.171960 0.123016 1.562221 135 93 100
-0.162380 0.122257 1.552577 134 90 96
-0.151726 0.120561 1.531043 105 65 67
-0.117056 0.104595 1.328285 120 76 75
-0.108964 0.103829 1.318558 134 85 75
-0.101492 0.103587 1.315484 142 89 69
-0.093862 0.103135 1.309739 140 79 69
-0.086514 0.102943 1.307308 122 60 54
-0.079336 0.102937 1.307229 126 67 58
-0.072340 0.103189 1.310434 131 75 64
-0.065307 0.103438 1.313597 122 70 58
-0.058297 0.103791 1.318075 116 69 61
-0.051437 0.104549 1.327696 95 55 66
-0.045285 0.107232 1.361770 81 51 56
-0.040906 0.116002 1.473142 113 76 72
-0.033123 0.117064 1.486634 118 77 75
-0.025070 0.117553 1.492836 123 82 87
-0.016952 0.118063 1.499319 116 73 82
-0.008764 0.118592 1.506037 129 89 94
-0.000502 0.119174 1.513426 132 101 104
0.007895 0.120589 1.531403 136 113 118
0.016700 0.123567 1.569216 247 240 243
-0.194456 0.135312 1.606429 130 104 104
-0.181984 0.132647 1.574785 136 100 106
-0.172167 0.131746 1.564099 131 89 100
-0.162007 0.130476 1.549019 0 0 0
-0.126724 0.114024 1.353701 0 0 0
-0.116677 0.111521 1.323984 128 75 78
-0.108764 0.110861 1.316142 135 79 74
-0.101370 0.110673 1.313912 134 74 62
-0.093853 0.110311 1.309615 134 77 46
-0.086473 0.110064 1.306687 130 69 59
-0.079339 0.110114 1.307275 129 73 62
-0.072367 0.110422 1.310930 113 59 52
-0.065340 0.110702 1.314260 115 66 58
-0.058473 0.111358 1.322048 104 60 61
-0.051995 0.113046 1.342090 81 48 55
-0.048031 0.121659 1.444337 96 62 72
-0.041204 0.124990 1.483888 114 74 79
-0.033132 0.125255 1.487027 112 71 76
-0.025037 0.125582 1.490909 121 79 86
-0.016944 0.126237 1.498688 121 80 87
-0.008746 0.126593 1.502911 120 84 90
-0.000502 0.127393 1.512416 122 90 95
0.007893 0.128971 1.531150 129 106 114
0.016606 0.131432 1.560362 207 202 204
-0.192688 0.142817 1.591827 122 98 98
-0.181846 0.141181 1.573592 133 101 102
-0.171586 0.139855 1.558819 127 95 89
-0.161030 0.138138 1.539676 98 55 58
-0.141456 0.128065 1.427404 0 0 0
-0.124765 0.119575 1.332775 111 64 66
-0.116356 0.118459 1.320341 129 76 73
-0.108754 0.118072 1.316024 126 72 65
-0.101221 0.117709 1.311974 126 68 63
-0.093827 0.117465 1.309260 132 71 69
-0.086636 0.117456 1.309156 125 66 57
-0.079505 0.117533 1.310021 115 60 53
-0.072462 0.117768 1.312638 116 60 59
-0.065552 0.118297 1.318529 102 52 54
-0.058909 0.119498 1.331920 91 53 59
-0.053981 0.125011 1.393362 86 52 62
-0.049086 0.132431 1.476070 102 60 71
-0.041267 0.133336 1.486156 103 64 72
-0.033175 0.133587 1.488956 114 72 79
-0.025054 0.133853 1.491923 117 73 79
-0.016907 0.134160 1.495339 121 83 89
-0.008756 0.134999 1.504691 111 77 83
-0.000502 0.135597 1.511355 124 91 98
0.007840 0.136438 1.520732 127 104 109
0.016474 0.138883 1.547987 157 152 154
-0.192199 0.151166 1.587782 249 217 228
-0.181516 0.149543 1.570730 128 97 104
-0.171147 0.148029 1.554836 115 84 83
-0.134323 0.129045 1.355429 0 0 0
-0.124002 0.126112 1.324626 135 81 81
-0.116198 0.125534 1.318553 132 77 72
-0.108609 0.125125 1.314260 120 65 56
-0.101121 0.124784 1.310677 124 66 61
-0.093815 0.124632 1.309083 123 62 58
-0.086733 0.124778 1.310610 116 57 55
-0.079630 0.124917 1.312069 115 60 57
-0.072646 0.125288 1.315968 106 54 54
-0.065912 0.126221 1.325769 89 48 53
-0.060354 0.129917 1.364594 78 41 49
-0.056845 0.139693 1.467270 100 62 68
-0.049170 0.140771 1.478599 106 66 68
-0.041200 0.141261 1.483745 116 77 79
-0.033174 0.141755 1.488930 115 75 76
-0.025062 0.142084 1.492384 115 75 76
-0.016899 0.142304 1.494697 116 79 81
-0.008749 0.143138 1.503459 118 82 88
-0.000501 0.143722 1.509592 119 85 96
0.007841 0.144802 1.520934 120 96 104
0.016510 0.147697 1.551343 149 140 143
-0.193321 0.160812 1.597059 126 82 99
-0.181802 0.158411 1.573208 0 0 0
-0.169346 0.154913 1.538475 86 55 56
-0.132035 0.134157 1.332338 119 74 70
-0.123388 0.132720 1.318066 140 78 70
-0.115840 0.132360 1.314487 124 67 58
-0.108291 0.131950 1.310418 127 68 58
-0.101009 0.131830 1.309227 135 73 63
-0.093795 0.131787 1.308805 126 67 52
-0.086824 0.132109 1.311995 119 64 61
-0.079850 0.132482 1.315705 107 58 56
-0.073033 0.133216 1.322990 99 57 58
-0.066876 0.135448 1.345163 84 46 52
-0.064210 0.146182 1.451758 102 64 70
-0.057255 0.148811 1.477870 108 65 68
-0.049224 0.149047 1.480218 107 65 66
-0.041179 0.149328 1.483004 109 70 68
-0.033133 0.149738 1.487072 113 75 75
-0.025054 0.150223 1.491895 109 71 77
-0.016897 0.150486 1.494505 117 77 82
-0.008737 0.151183 1.501432 117 79 85
-0.000501 0.151850 1.508055 115 81 91
0.007841 0.153151 1.520968 122 99 107
0.016470 0.155828 1.547560 138 131 134
-0.191904 0.168333 1.585352 106 69 77
-0.180390 0.165746 1.560987 107 78 73
-0.141111 0.143260 1.349221 108 69 71
-0.131427 0.140817 1.326206 124 70 70
-0.123356 0.139916 1.317727 126 64 64
-0.115549 0.139222 1.311186 146 88 69
-0.108117 0.138916 1.308308 137 78 63
-0.101009 0.139014 1.309229 126 66 54
-0.093895 0.139117 1.310199 128 71 62
-0.086979 0.139555 1.314328 114 61 58
-0.079967 0.139906 1.317626 94 53 51
-0.073905 0.142152 1.338786 82 48 48
-0.070558 0.150694 1.419228 88 57 54
-0.065296 0.156756 1.476328 102 62 67
-0.057239 0.156876 1.477454 108 66 73
-0.049240 0.157221 1.480702 106 63 72
-0.041245 0.157716 1.485361 107 68 70
-0.033145 0.157956 1.487627 107 73 73
-0.025016 0.158173 1.489666 120 81 83
-0.016889 0.158608 1.493761 117 75 82
-0.008726 0.159216 1.499487 109 70 78
-0.000500 0.159926 1.506182 122 88 94
0.007825 0.161175 1.517942 118 93 97
0.016408 0.163709 1.541805 131 117 121
-0.188813 0.174180 1.559813 252 187 203
-0.150283 0.152457 1.365284 0 0 0
-0.138914 0.148318 1.328216 118 70 66
-0.131078 0.147700 1.322681 123 68 63
-0.123244 0.147013 1.316527 128 71 62
-0.115716 0.146627 1.313073 125 63 57
-0.108229 0.146247 1.309671 135 76 60
-0.101115 0.146351 1.310600 126 68 62
-0.094045 0.146540 1.312296 116 59 58
-0.087162 0.147076 1.317092 100 53 55
-0.080801 0.148670 1.331367 83 46 48
-0.076960 0.155677 1.394118 78 45 49
-0.073199 0.164413 1.472352 103 63 68
-0.065375 0.165055 1.478098 107 67 69
-0.057286 0.165117 1.478655 104 63 70
-0.049259 0.165409 1.481273 105 63 74
-0.041236 0.165829 1.485026 110 69 77
-0.033112 0.165953 1.486140 106 67 69
-0.025034 0.166464 1.490720 110 69 74
-0.016899 0.166903 1.494647 116 75 83
-0.008732 0.167569 1.500610 111 76 86
-0.000500 0.168177 1.506060 112 78 88
0.007822 0.169440 1.517371 113 86 95
0.016325 0.171290 1.533938 125 108 112
0.025338 0.175420 1.570922 205 198 203
-0.146644 0.156076 1.332227 120 75 71
-0.138468 0.155106 1.323949 122 72 60
-0.130847 0.154685 1.320356 122 65 56
-0.123256 0.154251 1.316653 127 65 54
-0.115863 0.154029 1.314751 118 59 43
-0.108562 0.153905 1.313692 123 67 48
-0.101407 0.153987 1.314393 116 61 56
-0.094518 0.154514 1.318892 101 53 59
-0.087861 0.155541 1.327656 81 46 50
-0.083192 0.160591 1.370763 80 49 52
-0.080912 0.171715 1.465719 106 70 76
-0.073393 0.172948 1.476239 110 69 77
-0.065352 0.173106 1.477592 107 65 76
-0.057293 0.173254 1.478855 93 55 61
-0.049266 0.173563 1.481489 99 62 66
-0.041208 0.173861 1.484032 102 61 68
-0.033084 0.173959 1.484869 109 70 72
-0.025023 0.174569 1.490079 108 69 71
-0.016888 0.174995 1.493716 111 70 78
-0.008729 0.175738 1.500056 104 69 79
-0.000501 0.176651 1.507853 106 75 84
0.007824 0.177810 1.517740 115 90 94
0.016281 0.179224 1.529809 120 100 105
0.025147 0.182656 1.559107 149 138 146
-0.154622 0.164095 1.338006 87 59 52
-0.145753 0.162394 1.324134 121 75 64
-0.138053 0.161885 1.319983 128 76 63
-0.130576 0.161595 1.317619 122 64 52
-0.123020 0.161167 1.314134 130 65 56
-0.115620 0.160904 1.311992 129 67 59
-0.108348 0.160795 1.311102 118 63 54
-0.101586 0.161482 1.316702 108 57 55
-0.094994 0.162566 1.325537 91 46 49
-0.089237 0.165376 1.348453 83 46 50
-0.088028 0.177884 1.450441 101 64 66
-0.081441 0.180932 1.475292 103 66 68
-0.073493 0.181296 1.478259 103 66 70
-0.065349 0.181205 1.477524 97 60 68
-0.057273 0.181305 1.478339 99 61 67
-0.049271 0.181709 1.481627 102 64 64
-0.041213 0.182026 1.484215 110 71 69
-0.033086 0.182120 1.484977 106 67 65
-0.024996 0.182547 1.488465 99 59 71
-0.016897 0.183284 1.494474 109 70 78
-0.008742 0.184235 1.502227 114 78 84
-0.000501 0.185001 1.508475 107 74 81
0.007820 0.186046 1.516990 116 88 94
0.016262 0.187406 1.528078 116 95 104
0.024939 0.189627 1.546195 120 103 112
0.034218 0.194139 1.582980 214 208 213
-0.164824 0.174464 1.361633 0 0 0
-0.153611 0.170316 1.329256 110 62 60
-0.145602 0.169484 1.322765 120 67 57
-0.137816 0.168837 1.317719 124 69 60
-0.130240 0.168390 1.314227 123 64 54
-0.122917 0.168237 1.313033 127 67 55
-0.115627 0.168113 1.312067 124 68 57
-0.108648 0.168455 1.314736 113 58 55
-0.101890 0.169212 1.320641 99 52 54
-0.095867 0.171400 1.337720 86 51 55
-0.093883 0.181771 1.418663 108 68 73
-0.089327 0.188586 1.471855 112 66 72
-0.081430 0.189001 1.475091 102 60 67
-0.073422 0.189224 1.476834 99 61 67
-0.065351 0.189319 1.477575 94 60 66
-0.057287 0.189462 1.478691 97 62 66
-0.049225 0.189662 1.480245 104 67 71
-0.041163 0.189939 1.482409 113 72 80
-0.033099 0.190344 1.485574 104 65 67
-0.025009 0.190814 1.489242 113 74 72
-0.016901 0.191527 1.494803 113 71 72
-0.008741 0.192476 1.502208 115 77 77
-0.000501 0.193418 1.509563 114 81 85
0.007817 0.194293 1.516391 116 84 89
0.016242 0.195551 1.526208 116 89 92
0.024838 0.197307 1.539917 125 102 107
0.033840 0.200584 1.565489 141 125 132
0.043760 0.206868 1.614534 255 251 253
-0.161178 0.177912 1.331518 91 56 52
-0.153061 0.176974 1.324502 114 68 57
-0.145392 0.176487 1.320855 124 72 60
-0.137785 0.176028 1.317422 121 66 57
-0.130304 0.175688 1.314879 117 58 48
-0.122703 0.175136 1.310748 129 74 61
-0.115800 0.175574 1.314027 113 59 52
-0.108966 0.176184 1.318588 97 43 56
-0.102468 0.177459 1.328135 91 48 57
-0.098841 0.184286 1.379223 81 43 49
-0.097274 0.196401 1.469895 113 69 76
-0.089406 0.196836 1.473154 106 65 73
-0.081385 0.196988 1.474287 105 65 76
-0.073389 0.197238 1.476157 95 60 70
-0.065291 0.197245 1.476210 93 57 69
-0.057221 0.197348 1.476986 106 69 77
-0.049158 0.197513 1.478216 109 68 73
-0.041073 0.197641 1.479179 113 67 73
-0.033097 0.198483 1.485480 120 76 77
-0.025011 0.198996 1.489316 115 71 70
-0.016890 0.199603 1.493857 111 67 68
-0.008726 0.200357 1.499505 119 76 79
-0.000500 0.201271 1.506345 120 76 82
0.007818 0.202623 1.516463 123 82 80
0.016190 0.203269 1.521299 133 97 89
0.024726 0.204829 1.532975 138 107 106
0.033572 0.207512 1.553054 147 117 122
0.042861 0.211298 1.581388 204 191 193
-0.170496 0.187430 1.347419 0 0 0
-0.160490 0.184427 1.325837 105 61 62
-0.152544 0.183619 1.320026 126 74 67
-0.145046 0.183297 1.317713 123 71 59
-0.137616 0.183032 1.315804 116 60 49
-0.130175 0.182722 1.313574 123 65 53
-0.122841 0.182534 1.312229 114 60 49
-0.116137 0.183318 1.317860 106 56 56
-0.109217 0.183842 1.321626 93 51 58
-0.104256 0.187971 1.351310 79 45 52
-0.104304 0.202457 1.455447 111 66 75
-0.097441 0.204818 1.472425 109 64 67
-0.089411 0.204932 1.473242 110 70 72
-0.081326 0.204929 1.473218 105 68 70
-0.073325 0.205159 1.474872 98 60 66
-0.065291 0.205345 1.476211 103 64 72
-0.057198 0.205369 1.476387 111 67 74
-0.049179 0.205712 1.478851 117 70 72
-0.041095 0.205867 1.479968 120 70 72
-0.033026 0.206188 1.482270 122 75 77
-0.024991 0.207008 1.488169 119 75 76
-0.016861 0.207445 1.491309 115 71 72
-0.008723 0.208519 1.499030 124 81 78
-0.000500 0.209641 1.507098 128 85 82
0.007800 0.210476 1.513102 129 87 82
0.016146 0.211047 1.517205 136 97 88
0.024661 0.212681 1.528951 139 101 97
0.033366 0.214712 1.543548 144 105 107
0.042517 0.218206 1.568668 159 138 140
-0.168556 0.192605 1.332081 95 54 61
-0.160078 0.191209 1.322427 110 58 52
-0.152209 0.190444 1.317130 126 72 55
-0.144767 0.190162 1.315181 125 69 58
-0.137508 0.190102 1.314767 131 72 62
-0.130137 0.189874 1.313189 124 69 60
-0.123241 0.190352 1.316498 104 55 45
-0.116520 0.191176 1.322198 96 54 49
-0.110689 0.193668 1.339433 79 46 50
-0.110704 0.207471 1.434893 115 78 86
-0.105372 0.212598 1.470355 112 66 78
-0.097419 0.212850 1.472096 110 63 72
-0.089347 0.212862 1.472177 114 72 73
-0.081286 0.212907 1.472491 112 72 74
-0.073376 0.213401 1.475909 104 62 69
-0.065234 0.213259 1.474926 105 63 70
-0.057203 0.213489 1.476518 117 73 74
-0.049123 0.213586 1.477187 121 72 70
-0.041080 0.213908 1.479410 125 74 72
-0.033022 0.214300 1.482123 131 78 81
-0.024949 0.214808 1.485637 131 83 82
-0.016857 0.215573 1.490929 129 87 82
