# .PCD v0.7 - Point Cloud Data file format
VERSION 0.7
FIELDS x y z
SIZE 4 4 4
TYPE F F F
COUNT 1 1 1
WIDTH 1728
HEIGHT 1
VIEWPOINT 0 0 0 1 0 0 0
POINTS 1728
DATA ascii
-0.044336 0.160774 1.596673
-0.035685 0.161274 1.601647
-0.026924 0.161437 1.603265
-0.018173 0.161851 1.607372
-0.009368 0.162100 1.609841
-0.000536 0.162456 1.613384
0.008348 0.163056 1.619339
0.017273 0.163430 1.623053
0.026313 0.164269 1.631383
0.035439 0.165083 1.639467
0.044923 0.166895 1.657461
0.054751 0.169161 1.679971
-0.124932 0.160522 1.511790
-0.116032 0.159689 1.503950
-0.107404 0.159132 1.498705
-0.098892 0.158671 1.494355
-0.090348 0.158068 1.488682
-0.082306 0.158311 1.490965
-0.074428 0.158959 1.497070
-0.066772 0.160299 1.509688
-0.059604 0.163356 1.538486
-0.053048 0.169379 1.595205
-0.044472 0.170057 1.601588
-0.035672 0.170000 1.601052
-0.026911 0.170152 1.602489
-0.018170 0.170641 1.607091
-0.009378 0.171122 1.611625
-0.000536 0.171450 1.614708
0.008345 0.171883 1.618786
0.017270 0.172303 1.622746
0.026351 0.173471 1.633746
0.035481 0.174284 1.641406
0.044833 0.175635 1.654122
0.054491 0.177532 1.671987
0.065300 0.182090 1.714921
-0.135202 0.171319 1.534197
-0.124092 0.167682 1.501628
-0.115773 0.167567 1.500595
-0.107285 0.167172 1.497053
-0.098818 0.166744 1.493226
-0.090482 0.166482 1.490876
-0.082429 0.166740 1.493187
-0.074662 0.167698 1.501772
-0.067637 0.170768 1.529256
-0.061464 0.177160 1.586498
-0.053279 0.178907 1.602145
-0.044537 0.179106 1.603926
-0.035737 0.179109 1.603953
-0.026948 0.179189 1.604675
-0.018164 0.179402 1.606577
-0.009382 0.180034 1.612236
-0.000536 0.180452 1.615981
0.008355 0.180972 1.620640
0.017325 0.181784 1.627914
0.026376 0.182608 1.635290
0.035493 0.183353 1.641965
0.044783 0.184508 1.652301
0.054328 0.186148 1.666994
0.064308 0.188591 1.688867
-0.133462 0.177424 1.514448
-0.124073 0.175895 1.501395
-0.115441 0.175296 1.496284
-0.107222 0.175283 1.496174
-0.098817 0.174936 1.493216
-0.090518 0.174733 1.491482
-0.082638 0.175378 1.496986
-0.075149 0.177087 1.511572
-0.069354 0.183707 1.568082
-0.061894 0.187166 1.597607
-0.053195 0.187403 1.599631
-0.044506 0.187775 1.602803
-0.035724 0.187843 1.603386
-0.026957 0.188059 1.605222
-0.018167 0.188245 1.606814
-0.009370 0.188644 1.610221
-0.000537 0.189362 1.616346
0.008368 0.190159 1.623154
0.017313 0.190589 1.626821
0.026304 0.191058 1.630826
0.035463 0.192197 1.640550
0.044759 0.193468 1.651397
0.054044 0.194274 1.658279
0.063861 0.196483 1.677130
0.075131 0.202040 1.724566
-0.132475 0.184361 1.503249
-0.123951 0.183952 1.499915
-0.115374 0.183400 1.495420
-0.107107 0.183295 1.494560
-0.098909 0.183301 1.494607
-0.090800 0.183486 1.496120
-0.082973 0.184336 1.503045
-0.076461 0.188617 1.537959
-0.070460 0.195378 1.593087
-0.061957 0.196131 1.599227
-0.053211 0.196237 1.600092
-0.044448 0.196316 1.600731
-0.035671 0.196347 1.600986
-0.026975 0.196996 1.606277
-0.018170 0.197097 1.607097
-0.009362 0.197321 1.608927
-0.000535 0.197772 1.612606
0.008349 0.198621 1.619528
0.017309 0.199466 1.626417
0.026306 0.200021 1.630939
0.035439 0.201066 1.639465
0.044616 0.201881 1.646111
0.053851 0.202646 1.652347
0.063486 0.204475 1.667259
0.073957 0.208200 1.697631
-0.141948 0.194286 1.516335
-0.132214 0.192230 1.500291
-0.123650 0.191715 1.496274
-0.115291 0.191468 1.494345
-0.106901 0.191128 1.491691
-0.098798 0.191287 1.492934
-0.091104 0.192338 1.501132
-0.083714 0.194303 1.516468
-0.078354 0.201935 1.576035
-0.070615 0.204568 1.596585
-0.061901 0.204721 1.597777
-0.053132 0.204715 1.597736
-0.044397 0.204864 1.598893
-0.035650 0.205014 1.600067
-0.026916 0.205358 1.602751
-0.018162 0.205827 1.606412
-0.009368 0.206266 1.609841
-0.000535 0.206331 1.610346
0.008341 0.207310 1.617988
0.017283 0.208077 1.623973
0.026279 0.208758 1.629285
0.035301 0.209240 1.633050
0.044473 0.210242 1.640870
0.053816 0.211576 1.651278
0.063493 0.213648 1.667453
0.073580 0.216407 1.688984
-0.140870 0.201066 1.504813
-0.131859 0.199923 1.496257
-0.123636 0.199903 1.496102
-0.115201 0.199512 1.493181
-0.106771 0.199071 1.489877
-0.098989 0.199865 1.495821
-0.091524 0.201499 1.508053
-0.085601 0.207192 1.550655
-0.079270 0.213044 1.594458
-0.070602 0.213289 1.596290
-0.061818 0.213201 1.595630
-0.053050 0.213151 1.595254
-0.044293 0.213136 1.595147
-0.035611 0.213556 1.598289
-0.026890 0.213947 1.601214
-0.018148 0.214471 1.605136
-0.009345 0.214569 1.605865
-0.000535 0.215164 1.610318
0.008329 0.215879 1.615669
0.017238 0.216425 1.619757
0.026176 0.216846 1.622907
0.035235 0.217795 1.630013
0.044426 0.219014 1.639133
0.053647 0.219940 1.646070
0.063266 0.222001 1.661492
0.073307 0.224836 1.682710
0.084262 0.229526 1.717811
-0.150744 0.211594 1.521135
-0.140764 0.209167 1.503686
-0.131925 0.208238 1.497006
-0.123572 0.208005 1.495332
-0.115108 0.207537 1.491973
-0.106961 0.207615 1.492528
-0.099511 0.209170 1.503706
-0.093009 0.213179 1.532527
-0.087525 0.220548 1.585508
-0.079201 0.221600 1.593067
-0.070498 0.221719 1.593926
-0.061709 0.221565 1.592816
-0.053048 0.221899 1.595221
-0.044289 0.221869 1.594999
-0.035581 0.222143 1.596973
-0.026898 0.222803 1.601720
-0.018112 0.222834 1.601938
-0.009335 0.223140 1.604138
-0.000534 0.223698 1.608151
0.008312 0.224286 1.612375
0.017207 0.224909 1.616856
0.026147 0.225500 1.621102
0.035112 0.225944 1.624300
0.044270 0.227206 1.633371
0.053554 0.228578 1.643234
0.063080 0.230437 1.656597
0.072929 0.232862 1.674029
0.083903 0.237934 1.710495
-0.149953 0.218786 1.513153
-0.140340 0.216763 1.499157
-0.131455 0.215681 1.491673
-0.123296 0.215727 1.491990
-0.115049 0.215614 1.491211
-0.107424 0.216738 1.498984
-0.100542 0.219673 1.519284
-0.095643 0.227863 1.575928
-0.087932 0.230314 1.592882
-0.079089 0.230016 1.590821
-0.070305 0.229836 1.589575
-0.061608 0.229929 1.590213
-0.052935 0.230160 1.591817
-0.044252 0.230427 1.593660
-0.035494 0.230343 1.593080
-0.026802 0.230765 1.595997
-0.018095 0.231404 1.600416
-0.009331 0.231855 1.603538
-0.000533 0.232105 1.605265
0.008297 0.232699 1.609372
0.017171 0.233286 1.613432
0.026132 0.234254 1.620129
0.035122 0.234926 1.624773
0.044273 0.236181 1.633456
0.053537 0.237518 1.642703
0.063033 0.239349 1.655366
0.072830 0.241721 1.671769
0.083398 0.245832 1.700204
-0.162889 0.233737 1.557445
-0.149143 0.225861 1.504971
-0.140011 0.224460 1.495634
-0.131295 0.223593 1.489857
-0.123034 0.223437 1.488820
-0.115130 0.223954 1.492260
-0.108093 0.226365 1.508324
-0.103039 0.233671 1.557009
-0.096849 0.239493 1.595799
-0.087998 0.239234 1.594078
-0.079095 0.238764 1.590947
-0.070270 0.238439 1.588778
-0.061586 0.238572 1.589667
-0.052784 0.238213 1.587273
-0.044190 0.238834 1.591414
-0.035456 0.238828 1.591374
-0.026767 0.239205 1.593880
-0.018063 0.239761 1.597585
-0.009313 0.240180 1.600379
-0.000532 0.240556 1.602882
0.008281 0.241069 1.606305
0.017158 0.241962 1.612255
0.026093 0.242782 1.617720
0.035155 0.244069 1.626293
0.044219 0.244848 1.631484
0.053413 0.245960 1.638891
0.062771 0.247402 1.648501
0.072653 0.250284 1.667702
0.083077 0.254178 1.693655
-0.160023 0.238019 1.530042
-0.148583 0.233242 1.499329
-0.139745 0.232225 1.492797
-0.131040 0.231319 1.486971
-0.122978 0.231502 1.488147
-0.115427 0.232740 1.496102
-0.109086 0.236796 1.522177
-0.105095 0.247048 1.588080
-0.096834 0.248210 1.595549
-0.087816 0.247468 1.590780
-0.079127 0.247594 1.591589
-0.070210 0.246947 1.587431
-0.061445 0.246725 1.586003
-0.052713 0.246589 1.585130
-0.044060 0.246842 1.586757
-0.035383 0.247050 1.588094
-0.026774 0.248022 1.594341
-0.018071 0.248646 1.598352
-0.009313 0.248975 1.600470
-0.000531 0.248778 1.599202
0.008267 0.249478 1.603698
0.017120 0.250256 1.608704
0.026038 0.251129 1.614314
0.035055 0.252275 1.621681
0.044098 0.253106 1.627020
0.053224 0.254054 1.633118
0.062701 0.256159 1.646649
0.072647 0.259413 1.667563
0.083358 0.264361 1.699371
-0.158409 0.243929 1.514609
-0.148403 0.241175 1.497509
-0.139831 0.240565 1.493716
-0.131340 0.240026 1.490373
-0.123136 0.239976 1.490058
-0.115573 0.241254 1.497994
-0.110857 0.249129 1.546897
-0.105728 0.257303 1.597646
-0.096809 0.256898 1.595134
-0.087856 0.256314 1.591509
-0.078984 0.255862 1.588698
-0.070114 0.255306 1.585246
-0.061366 0.255100 1.583970
-0.052611 0.254794 1.582071
-0.043935 0.254824 1.582256
-0.035363 0.255617 1.587180
-0.026738 0.256425 1.592194
-0.018043 0.257013 1.595846
-0.009295 0.257257 1.597361
-0.000530 0.257245 1.597289
0.008249 0.257695 1.600083
0.017065 0.258255 1.603561
0.025952 0.259133 1.609013
0.034972 0.260556 1.617846
0.044055 0.261779 1.625442
0.053263 0.263204 1.634287
0.062705 0.265215 1.646773
0.072692 0.268728 1.668589
0.083601 0.274486 1.704341
-0.169812 0.256920 1.542708
-0.157444 0.250705 1.505388
-0.148146 0.248960 1.494912
-0.139587 0.248327 1.491112
-0.131173 0.247889 1.488480
-0.123067 0.248012 1.489218
-0.115596 0.249524 1.498298
-0.111751 0.259694 1.559365
-0.105698 0.265994 1.597194
-0.096689 0.265322 1.593159
-0.087675 0.264500 1.588221
-0.078877 0.264223 1.586560
-0.070072 0.263848 1.584309
-0.061198 0.263070 1.579635
-0.052420 0.262515 1.576307
-0.043897 0.263278 1.580885
-0.035302 0.263873 1.584459
-0.026658 0.264368 1.587429
-0.018003 0.265185 1.592336
-0.009270 0.265303 1.593046
-0.000529 0.265260 1.592788
0.008237 0.266084 1.597737
0.017064 0.267037 1.603457
0.025963 0.268072 1.609675
0.034967 0.269391 1.617594
0.044002 0.270371 1.623474
0.053189 0.271798 1.632043
0.062707 0.274256 1.646805
0.072810 0.278334 1.671292
0.083806 0.284534 1.708519
-0.167164 0.261246 1.518651
-0.157014 0.258257 1.501272
-0.147996 0.256903 1.493401
-0.139409 0.256181 1.489203
-0.131170 0.256050 1.488446
-0.123160 0.256377 1.490344
-0.115733 0.258051 1.500078
-0.111327 0.267232 1.553448
-0.105466 0.274155 1.593688
-0.096479 0.273468 1.589694
-0.087616 0.273031 1.587158
-0.078794 0.272640 1.584882
-0.070015 0.272318 1.583012
-0.061195 0.271726 1.579571
-0.052458 0.271365 1.577469
-0.043799 0.271343 1.577341
-0.035214 0.271882 1.580477
-0.026552 0.271990 1.581104
-0.017932 0.272844 1.586066
-0.009242 0.273203 1.588156
-0.000527 0.273294 1.588686
0.008225 0.274459 1.595459
0.017016 0.275054 1.598915
0.025935 0.276610 1.607959
0.034939 0.278045 1.616303
0.044085 0.279806 1.626537
0.053300 0.281334 1.635422
0.062768 0.283571 1.648427
0.072820 0.287545 1.671527
0.084519 0.296409 1.723057
-0.178045 0.273493 1.540699
-0.165959 0.267636 1.507704
-0.156392 0.265439 1.495327
-0.147871 0.264874 1.492141
-0.139380 0.264297 1.488896
-0.131091 0.264058 1.487544
-0.123273 0.264797 1.491709
-0.115587 0.265945 1.498176
-0.110818 0.274495 1.546342
-0.105298 0.282448 1.591146
-0.096345 0.281799 1.587487
-0.087499 0.281363 1.585030
-0.078704 0.281017 1.583081
-0.069969 0.280821 1.581977
-0.061035 0.279659 1.575431
-0.052458 0.280018 1.577455
-0.043777 0.279857 1.576551
-0.035088 0.279555 1.574849
-0.026439 0.279475 1.574395
-0.017871 0.280583 1.580637
-0.009228 0.281488 1.585735
-0.000527 0.281689 1.586869
0.008198 0.282298 1.590301
0.016996 0.283501 1.597076
0.025843 0.284422 1.602263
0.034895 0.286554 1.614276
0.044048 0.288491 1.625188
0.053431 0.291022 1.639444
0.062859 0.293041 1.650817
0.073268 0.298542 1.681809
-0.174876 0.276928 1.513273
-0.165317 0.274841 1.501868
-0.155803 0.272613 1.489693
-0.147501 0.272377 1.488403
-0.139314 0.272339 1.488195
-0.130770 0.271553 1.483901
-0.122970 0.272311 1.488042
-0.115574 0.274135 1.498011
-0.110772 0.282863 1.545701
-0.105214 0.290948 1.589882
-0.096168 0.289977 1.584576
-0.087496 0.290051 1.584980
-0.078773 0.289956 1.584462
-0.069837 0.288955 1.578995
-0.060975 0.288021 1.573887
-0.052397 0.288340 1.575632
-0.043769 0.288453 1.576250
-0.035072 0.288061 1.574106
-0.026400 0.287690 1.572078
-0.017814 0.288341 1.575639
-0.009192 0.289058 1.579553
-0.000525 0.289540 1.582189
0.008195 0.290909 1.589671
0.016990 0.292147 1.596438
0.025832 0.293078 1.601524
0.034863 0.295138 1.612778
0.044103 0.297775 1.627191
0.053504 0.300430 1.641697
0.063207 0.303770 1.659948
0.073546 0.308937 1.688183
-0.185628 0.289045 1.533502
-0.173706 0.283324 1.503149
-0.164891 0.282354 1.498003
-0.155791 0.280767 1.489586
-0.146955 0.279506 1.482898
-0.138752 0.279372 1.482186
-0.130959 0.280101 1.486050
-0.123151 0.280889 1.490231
-0.115640 0.282517 1.498868
-0.110988 0.291911 1.548712
-0.105070 0.299262 1.587707
-0.096174 0.298691 1.584679
-0.087428 0.298515 1.583746
-0.078631 0.298112 1.581605
-0.069777 0.297361 1.577625
-0.061014 0.296846 1.574890
-0.052319 0.296542 1.573281
-0.043719 0.296767 1.574474
-0.035061 0.296604 1.573610
-0.026363 0.295892 1.569830
-0.017763 0.296135 1.571117
-0.009172 0.297081 1.576140
-0.000524 0.297755 1.579712
0.008170 0.298711 1.584788
0.016922 0.299708 1.590078
0.025838 0.301945 1.601943
0.034957 0.304812 1.617155
0.044253 0.307752 1.632753
0.053777 0.311014 1.650060
0.063509 0.314374 1.667885
0.074539 0.322497 1.710981
-0.182935 0.293144 1.511257
-0.173033 0.290442 1.497326
-0.164585 0.290034 1.495221
-0.155478 0.288359 1.486590
-0.147067 0.287861 1.484023
-0.138802 0.287609 1.482722
-0.130647 0.287568 1.482510
-0.123002 0.288716 1.488426
-0.115550 0.290515 1.497701
-0.111344 0.301375 1.553690
-0.105013 0.307806 1.586844
-0.096151 0.307312 1.584295
-0.087322 0.306833 1.581829
-0.078505 0.306296 1.579061
-0.069750 0.305902 1.577029
-0.060983 0.305331 1.574082
-0.052268 0.304876 1.571738
-0.043641 0.304862 1.571667
-0.035020 0.304882 1.571767
-0.026360 0.304479 1.569691
-0.017769 0.304856 1.571635
-0.009175 0.305836 1.576688
-0.000523 0.305838 1.576700
0.008159 0.307014 1.582759
0.016937 0.308704 1.591473
0.025844 0.310807 1.602315
0.035017 0.314224 1.619931
0.044486 0.318374 1.641326
0.054203 0.322605 1.663137
0.064224 0.327164 1.686642
-0.182245 0.300300 1.505558
-0.172697 0.298078 1.494418
-0.163772 0.296765 1.487835
-0.154983 0.295572 1.481854
-0.147032 0.295934 1.483671
-0.138772 0.295682 1.482405
-0.130422 0.295193 1.479954
-0.122775 0.296336 1.485685
-0.115649 0.298989 1.498987
-0.111923 0.311511 1.561763
-0.104745 0.315706 1.582796
-0.096093 0.315812 1.583329
-0.087328 0.315537 1.581949
-0.078488 0.314896 1.578736
-0.069686 0.314267 1.575583
-0.061026 0.314193 1.575210
-0.052280 0.313574 1.572109
-0.043596 0.313158 1.570022
-0.034981 0.313161 1.570038
-0.026336 0.312800 1.568229
-0.017743 0.313011 1.569288
-0.009147 0.313543 1.571951
-0.000523 0.314117 1.574832
0.008140 0.314963 1.579069
0.016922 0.317163 1.590101
0.025867 0.319875 1.603700
0.035061 0.323520 1.621970
0.044806 0.329739 1.653152
0.054716 0.334869 1.678869
0.065748 0.344402 1.726664
-0.195456 0.316578 1.544674
-0.181210 0.306809 1.497007
-0.172244 0.305475 1.490502
-0.163578 0.304567 1.486069
-0.155288 0.304302 1.484776
-0.146915 0.303834 1.482494
-0.138686 0.303626 1.481480
-0.130659 0.303865 1.482642
-0.122823 0.304607 1.486264
-0.116184 0.308634 1.505915
-0.112907 0.322894 1.575490
-0.104807 0.324581 1.583724
-0.095815 0.323562 1.578751
-0.087193 0.323714 1.579492
-0.078237 0.322521 1.573671
-0.069585 0.322442 1.573286
-0.060991 0.322650 1.574302
-0.052234 0.321916 1.570721
-0.043582 0.321671 1.569525
-0.034925 0.321260 1.567517
-0.026297 0.320931 1.565913
-0.017739 0.321565 1.569006
-0.009133 0.321663 1.569488
-0.000523 0.322622 1.574166
0.008150 0.324025 1.581009
0.016935 0.326125 1.591257
0.025861 0.328609 1.603376
0.035234 0.334061 1.629981
0.045081 0.340887 1.663286
0.056050 0.352472 1.719813
-0.194205 0.322973 1.534787
-0.181267 0.315122 1.497476
-0.172171 0.313520 1.489864
-0.163458 0.312492 1.484981
-0.155182 0.312235 1.483760
-0.146844 0.311817 1.481773
-0.138726 0.311846 1.481910
-0.130817 0.312377 1.484435
-0.122931 0.313037 1.487570
-0.116901 0.318853 1.515207
-0.113383 0.332939 1.582144
-0.104704 0.332944 1.582167
-0.095759 0.332033 1.577841
-0.087058 0.331868 1.577056
-0.078259 0.331251 1.574124
-0.069560 0.330959 1.572736
-0.060862 0.330589 1.570977
-0.052183 0.330214 1.569195
-0.043548 0.330029 1.568316
-0.034890 0.329528 1.565938
-0.026283 0.329344 1.565064
-0.017722 0.329856 1.567493
-0.009128 0.330086 1.568588
-0.000522 0.331184 1.573806
0.008157 0.332957 1.582230
0.016914 0.334456 1.589353
0.025826 0.336941 1.601164
0.035268 0.343330 1.631524
0.045249 0.351314 1.669467
-0.194308 0.331570 1.535599
-0.181514 0.323779 1.499517
-0.172587 0.322472 1.493465
-0.163718 0.321151 1.487347
-0.155271 0.320560 1.484608
-0.146996 0.320281 1.483315
-0.139502 0.321767 1.490199
-0.131176 0.321403 1.488512
-0.123065 0.321551 1.489197
-0.118624 0.331990 1.537547
-0.113401 0.341671 1.582382
-0.104503 0.340969 1.579129
-0.095628 0.340222 1.575671
-0.086857 0.339732 1.573401
-0.078129 0.339324 1.571510
-0.069415 0.338879 1.569448
-0.060767 0.338676 1.568508
-0.052127 0.338463 1.567523
-0.043458 0.337931 1.565061
-0.034857 0.337800 1.564454
-0.026277 0.337858 1.564722
-0.017708 0.338188 1.566250
-0.009135 0.338966 1.569852
-0.000523 0.339844 1.573920
0.008162 0.341853 1.583225
0.016881 0.342502 1.586229
0.025868 0.346295 1.603793
0.035382 0.353424 1.636812
0.045774 0.364664 1.688869
-0.193858 0.339209 1.532043
-0.181453 0.331895 1.499009
-0.172901 0.331269 1.496183
-0.164099 0.330078 1.490803
-0.155237 0.328634 1.484284
-0.147228 0.328937 1.485653
-0.139797 0.330643 1.493356
-0.131841 0.331240 1.496052
-0.123352 0.330490 1.492666
-0.119006 0.341523 1.542496
-0.113374 0.350272 1.582012
-0.104513 0.349668 1.579283
-0.095601 0.348770 1.575226
-0.086700 0.347739 1.570571
-0.078028 0.347498 1.569483
-0.069357 0.347201 1.568139
-0.060639 0.346553 1.565215
-0.052040 0.346483 1.564900
-0.043398 0.346038 1.562889
-0.034818 0.345996 1.562699
-0.026269 0.346337 1.564237
-0.017696 0.346550 1.565201
-0.009126 0.347251 1.568367
-0.000523 0.348579 1.574363
0.008148 0.349971 1.580652
0.016906 0.351733 1.588609
0.025975 0.356566 1.610436
0.035577 0.364404 1.645839
0.046900 0.383125 1.730394
-0.192765 0.345656 1.523408
-0.181349 0.339926 1.498155
-0.173006 0.339685 1.497091
-0.164396 0.338870 1.493502
-0.156402 0.339306 1.495421
-0.148149 0.339198 1.494948
-0.140013 0.339359 1.495657
-0.131840 0.339446 1.496040
-0.123376 0.338747 1.492960
-0.118386 0.348163 1.534460
-0.113245 0.358543 1.580206
-0.104301 0.357609 1.576090
-0.095485 0.356981 1.573323
-0.086712 0.356404 1.570777
-0.077934 0.355680 1.567590
-0.069285 0.355434 1.566503
-0.060611 0.354976 1.564484
-0.051981 0.354665 1.563115
-0.043361 0.354315 1.561569
-0.034801 0.354397 1.561933
-0.026223 0.354296 1.561487
-0.017666 0.354536 1.562543
-0.009120 0.355621 1.567328
-0.000523 0.357462 1.575441
0.008152 0.358819 1.581424
0.016918 0.360703 1.589724
0.025975 0.365404 1.610443
0.035583 0.373492 1.646091
0.045163 0.378084 1.666327
-0.191008 0.350787 1.509517
-0.181662 0.348747 1.500740
-0.173501 0.348895 1.501376
-0.164333 0.346932 1.492928
-0.157275 0.349451 1.503769
-0.148667 0.348616 1.500175
-0.140817 0.349561 1.504243
-0.133059 0.350871 1.509881
-0.124517 0.350148 1.506766
-0.119680 0.360480 1.551227
-0.113148 0.366901 1.578860
-0.104251 0.366079 1.575322
-0.095342 0.365065 1.570960
-0.086615 0.364615 1.569024
-0.077972 0.364459 1.568349
-0.069244 0.363817 1.565587
-0.060576 0.363354 1.563596
-0.051966 0.363138 1.562669
-0.043391 0.363137 1.562662
-0.034792 0.362884 1.561572
-0.026230 0.362964 1.561918
-0.017703 0.363852 1.565740
-0.009127 0.364467 1.568387
-0.000522 0.365479 1.572739
0.008130 0.366486 1.577074
0.016941 0.369923 1.591865
0.026008 0.374711 1.612469
0.035920 0.386152 1.661703
0.045567 0.390689 1.681227
-0.191133 0.359306 1.510511
-0.182116 0.357875 1.504492
-0.174314 0.358807 1.508414
-0.165039 0.356650 1.499344
-0.158086 0.359548 1.511525
-0.149371 0.358536 1.507275
-0.141731 0.360138 1.514009
-0.137306 0.370619 1.558071
-0.129577 0.372981 1.567997
-0.121880 0.375777 1.579754
-0.113103 0.375415 1.578230
-0.104155 0.374381 1.573884
-0.095151 0.372938 1.567818
-0.086459 0.372553 1.566201
-0.077829 0.372380 1.565473
-0.069103 0.371647 1.562392
-0.060547 0.371750 1.562823
-0.051926 0.371425 1.561457
-0.043350 0.371357 1.561173
-0.034776 0.371273 1.560818
-0.026238 0.371658 1.562436
-0.017719 0.372797 1.567225
-0.009126 0.373041 1.568251
-0.000522 0.374203 1.573137
0.008146 0.375858 1.580096
0.016955 0.378977 1.593207
0.026063 0.384364 1.615852
0.035742 0.393311 1.653465
0.046872 0.411363 1.729358
0.052332 0.381954 1.605721
-0.185157 0.372243 1.529613
-0.178586 0.376080 1.545380
-0.168988 0.373608 1.535221
-0.131886 0.388384 1.595940
-0.122289 0.385733 1.585043
-0.112972 0.383630 1.576404
-0.104031 0.382559 1.572004
-0.094956 0.380757 1.564600
-0.086417 0.380961 1.565434
-0.077754 0.380602 1.563961
-0.069148 0.380467 1.563406
-0.060407 0.379450 1.559225
-0.051826 0.379266 1.558471
-0.043343 0.379860 1.560911
-0.034800 0.380104 1.561913
-0.026236 0.380194 1.562284
-0.017702 0.381015 1.565659
-0.009133 0.381961 1.569546
-0.000523 0.383173 1.574526
0.008164 0.385396 1.583660
0.017039 0.389633 1.601069
0.026159 0.394687 1.621840
0.036017 0.405475 1.666169
0.046165 0.414505 1.703274
-0.132273 0.398305 1.600617
-0.122318 0.394526 1.585428
-0.113138 0.392855 1.578715
-0.104020 0.391142 1.571831
-0.094881 0.389037 1.563371
-0.086272 0.388897 1.562811
-0.077687 0.388847 1.562609
-0.069119 0.388886 1.562763
-0.060481 0.388478 1.561126
-0.051851 0.387999 1.559201
-0.043262 0.387700 1.557998
-0.034745 0.388059 1.559441
-0.026240 0.388830 1.562541
-0.017697 0.389500 1.565231
-0.009125 0.390228 1.568156
-0.000522 0.391489 1.573223
0.008162 0.393992 1.583283
0.017065 0.399021 1.603494
0.026216 0.404456 1.625334
0.036171 0.416399 1.673328
0.045532 0.418043 1.679933
-0.132113 0.406597 1.598685
-0.122141 0.402641 1.583133
-0.113053 0.401217 1.577533
-0.104029 0.399805 1.571981
-0.094837 0.397428 1.562633
-0.086217 0.397218 1.561809
-0.077694 0.397457 1.562748
-0.069061 0.397127 1.561453
-0.060509 0.397230 1.561856
-0.051856 0.396593 1.559351
-0.043242 0.396072 1.557302
-0.034745 0.396615 1.559439
-0.026255 0.397627 1.563418
-0.017680 0.397701 1.563707
-0.009124 0.398769 1.567906
-0.000522 0.400251 1.573735
0.008177 0.403412 1.586162
0.017044 0.407316 1.601515
0.026272 0.414258 1.628808
0.036200 0.425911 1.674627
-0.313019 0.510028 1.963013
-0.301915 0.509468 1.960856
-0.291674 0.510375 1.964349
-0.132177 0.415570 1.599457
-0.121971 0.410756 1.580932
-0.112773 0.408858 1.573627
-0.103851 0.407730 1.569285
-0.094908 0.406309 1.563814
-0.086092 0.405200 1.559547
-0.077623 0.405663 1.561330
-0.068986 0.405254 1.559755
-0.060403 0.405086 1.559107
-0.051797 0.404692 1.557590
-0.043243 0.404618 1.557307
-0.034757 0.405316 1.559991
-0.026247 0.406086 1.562955
-0.017701 0.406768 1.565580
-0.009113 0.406885 1.566033
-0.000524 0.410012 1.578068
0.008190 0.412796 1.588782
0.017040 0.416024 1.601206
0.026268 0.423140 1.628594
0.036061 0.433431 1.668204
-0.311726 0.518650 1.954910
-0.301390 0.519322 1.957445
-0.291223 0.520348 1.961310
-0.132727 0.426112 1.606113
-0.122112 0.419915 1.582754
-0.112899 0.417961 1.575390
-0.103898 0.416528 1.569991
-0.094908 0.414887 1.563805
-0.086213 0.414338 1.561735
-0.077574 0.413970 1.560349
-0.069065 0.414284 1.561532
-0.060402 0.413638 1.559097
-0.051864 0.413775 1.559612
-0.043336 0.414058 1.560678
-0.034820 0.414618 1.562790
-0.026268 0.414983 1.564166
-0.017688 0.415066 1.564479
-0.009141 0.416746 1.570812
-0.000525 0.419410 1.580854
0.008225 0.423295 1.595497
0.017139 0.427267 1.610468
0.026399 0.434221 1.636680
0.036294 0.445454 1.679018
-0.311638 0.529227 1.954357
-0.301139 0.529622 1.955815
-0.291364 0.531366 1.962257
-0.134155 0.439604 1.623394
-0.122559 0.430168 1.588547
-0.112936 0.426745 1.575906
-0.103747 0.424528 1.567719
-0.094841 0.423170 1.562704
-0.086163 0.422664 1.560838
-0.077571 0.422512 1.560276
-0.068896 0.421820 1.557718
-0.060300 0.421476 1.556450
-0.051830 0.422053 1.558579
-0.043337 0.422629 1.560707
-0.034807 0.423042 1.562233
-0.026280 0.423769 1.564916
-0.017713 0.424249 1.566690
-0.009148 0.425721 1.572125
-0.000525 0.428142 1.581065
0.008209 0.431233 1.592479
0.017133 0.435953 1.609910
0.026295 0.441467 1.630274
0.036206 0.453556 1.674915
-0.135483 0.452950 1.639458
-0.122570 0.438923 1.588688
-0.112817 0.434930 1.574235
-0.103706 0.432956 1.567090
-0.094882 0.431932 1.563384
-0.086122 0.431023 1.560092
-0.077478 0.430561 1.558421
-0.068820 0.429895 1.556008
-0.060294 0.429974 1.556296
-0.051837 0.430663 1.558789
-0.043283 0.430653 1.558754
-0.034762 0.431060 1.560224
-0.026258 0.431989 1.563589
-0.017732 0.433315 1.568386
-0.009159 0.434849 1.573939
-0.000526 0.437970 1.585235
0.008218 0.440450 1.594213
0.017095 0.443794 1.606316
0.026346 0.451281 1.633417
0.036339 0.464445 1.681063
-0.136160 0.464256 1.647657
-0.122768 0.448366 1.591262
-0.112793 0.443474 1.573898
-0.103724 0.441634 1.567370
-0.094855 0.440384 1.562934
-0.086089 0.439417 1.559502
-0.077363 0.438457 1.556095
-0.068789 0.438230 1.555291
-0.060248 0.438180 1.555111
-0.051708 0.438121 1.554903
-0.043222 0.438591 1.556569
-0.034775 0.439784 1.560806
-0.026284 0.441003 1.565130
-0.017745 0.442241 1.569524
-0.009164 0.443712 1.574743
-0.000526 0.446663 1.585217
0.008234 0.450035 1.597185
0.017085 0.452358 1.605430
0.026266 0.458849 1.628466
0.036122 0.470851 1.671063
-0.123448 0.459627 1.600067
-0.113086 0.453286 1.577994
-0.103861 0.450827 1.569433
-0.094925 0.449292 1.564091
-0.086066 0.447853 1.559081
-0.077362 0.446992 1.556083
-0.068817 0.446945 1.555921
-0.060248 0.446712 1.555109
-0.051721 0.446767 1.555298
-0.043311 0.448047 1.559755
-0.034814 0.448842 1.562521
-0.026249 0.448990 1.563037
-0.017730 0.450474 1.568205
-0.009179 0.453102 1.577352
-0.000528 0.456506 1.589204
0.008218 0.457948 1.594222
0.017086 0.461191 1.605512
0.026250 0.467500 1.627475
0.036278 0.482087 1.678255
-0.124040 0.470656 1.607751
-0.113213 0.462464 1.579768
-0.103780 0.459081 1.568210
-0.094905 0.457779 1.563763
-0.086121 0.456700 1.560077
-0.077431 0.455936 1.557469
-0.068765 0.455139 1.554744
-0.060228 0.455095 1.554596
-0.051756 0.455609 1.556350
-0.043292 0.456411 1.559092
-0.034804 0.457285 1.562075
-0.026301 0.458483 1.566170
-0.017789 0.460582 1.573341
-0.009193 0.462452 1.579728
-0.000527 0.464335 1.586158
0.008212 0.466317 1.592929
0.017072 0.469611 1.604182
0.026265 0.476703 1.628409
0.036251 0.490929 1.677004
-0.124456 0.481084 1.613136
-0.113398 0.471903 1.582351
-0.103977 0.468574 1.571190
-0.095021 0.466929 1.565673
-0.086188 0.465624 1.561298
-0.077383 0.464195 1.556506
-0.068796 0.463881 1.555453
-0.060332 0.464431 1.557297
-0.051791 0.464462 1.557402
-0.043287 0.464916 1.558924
-0.034789 0.465656 1.561404
-0.026316 0.467337 1.567040
-0.017793 0.469337 1.573747
-0.009195 0.471266 1.580215
-0.000525 0.471552 1.581174
0.008214 0.475184 1.593355
0.017075 0.478495 1.604457
0.026260 0.485541 1.628082
0.036156 0.498824 1.672621
-0.125883 0.495552 1.631629
-0.113669 0.481731 1.586123
-0.104055 0.477551 1.572359
-0.094971 0.475271 1.564854
-0.086207 0.474293 1.561633
-0.077376 0.472694 1.556370
-0.068846 0.472761 1.556590
-0.060360 0.473194 1.558015
-0.051788 0.472982 1.557316
-0.043268 0.473262 1.558238
-0.034815 0.474584 1.562592
-0.026263 0.474972 1.563867
-0.017768 0.477293 1.571512
-0.009203 0.480317 1.581468
-0.000526 0.481402 1.585039
0.008211 0.483757 1.592793
0.017087 0.487635 1.605563
0.026371 0.496558 1.634943
0.036451 0.512141 1.686250
-0.127703 0.511799 1.655221
-0.114306 0.493184 1.595016
-0.104377 0.487684 1.577227
-0.094922 0.483608 1.564047
-0.086138 0.482476 1.560386
-0.077425 0.481538 1.557351
-0.068846 0.481304 1.556594
-0.060334 0.481531 1.557329
-0.051750 0.481176 1.556180
-0.043217 0.481244 1.556399
-0.034809 0.483070 1.562306
-0.026273 0.483754 1.564518
-0.017774 0.486076 1.572027
-0.009192 0.488403 1.579555
-0.000527 0.490527 1.586423
0.008219 0.492963 1.594303
0.017089 0.496497 1.605731
0.026350 0.505138 1.633678
0.036566 0.523046 1.691593
-0.114863 0.504381 1.602784
-0.104504 0.496945 1.579155
-0.095092 0.493072 1.566849
-0.086304 0.491982 1.563385
-0.077531 0.490752 1.559477
-0.068844 0.489829 1.556543
-0.060327 0.490021 1.557155
-0.051822 0.490391 1.558330
-0.043305 0.490779 1.559561
-0.034847 0.492177 1.564004
-0.026323 0.493259 1.567442
-0.017781 0.494902 1.572664
-0.009185 0.496739 1.578502
-0.000525 0.498042 1.582641
0.008206 0.500901 1.591727
0.017101 0.505679 1.606911
0.026479 0.516619 1.641674
0.036732 0.534743 1.699268
-0.115515 0.516090 1.611889
-0.104613 0.506138 1.580804
-0.095379 0.503181 1.571570
-0.086289 0.500476 1.563121
-0.077573 0.499578 1.560317
-0.068981 0.499364 1.559647
-0.060362 0.498857 1.558064
-0.051806 0.498791 1.557859
-0.043341 0.499748 1.560848
-0.034827 0.500483 1.563143
-0.026324 0.501882 1.567512
-0.017795 0.503923 1.573888
-0.009174 0.504792 1.576602
-0.000526 0.507552 1.585221
0.008224 0.510800 1.595366
0.017164 0.516384 1.612807
0.026642 0.528858 1.651767
0.036188 0.536007 1.674095
-0.116513 0.529470 1.625816
-0.105195 0.517675 1.589595
-0.095482 0.512359 1.573273
-0.086498 0.510284 1.566900
-0.077568 0.508111 1.560228
-0.068862 0.507044 1.556952
-0.060379 0.507552 1.558511
-0.051868 0.507948 1.559729
-0.043376 0.508730 1.562129
-0.034877 0.509781 1.565358
-0.026329 0.510586 1.567829
-0.017788 0.512377 1.573328
-0.009181 0.513796 1.577686
-0.000527 0.516496 1.585977
0.008236 0.520315 1.597702
0.017197 0.526260 1.615959
0.026596 0.537002 1.648944
0.036540 0.550497 1.690381
-0.117110 0.541147 1.634138
-0.105360 0.527223 1.592089
-0.095561 0.521419 1.574564
-0.086433 0.518493 1.565726
-0.077486 0.516126 1.558580
-0.068938 0.516154 1.558665
-0.060372 0.516037 1.558311
-0.051847 0.516294 1.559088
-0.043308 0.516489 1.559676
-0.034899 0.518698 1.566345
-0.026386 0.520316 1.571232
-0.017822 0.521994 1.576301
-0.009195 0.523276 1.580171
-0.000526 0.525084 1.585632
0.008240 0.529320 1.598421
0.017272 0.537459 1.622999
0.026707 0.548315 1.655783
0.037003 0.566871 1.711816
-0.117651 0.552655 1.641687
-0.106039 0.539412 1.602349
-0.095737 0.531038 1.577472
-0.086496 0.527467 1.566865
-0.077630 0.525651 1.561469
-0.068994 0.525131 1.559925
-0.060419 0.525001 1.559537
-0.051892 0.525307 1.560448
-0.043424 0.526445 1.563828
-0.034945 0.527990 1.568418
-0.026367 0.528554 1.570092
-0.017825 0.530742 1.576594
-0.009189 0.531595 1.579127
-0.000527 0.534024 1.586343
0.008244 0.538333 1.599142
0.017305 0.547390 1.626047
0.026773 0.558777 1.659872
-0.118073 0.563680 1.647581
-0.106191 0.548990 1.604644
-0.096042 0.541414 1.582501
-0.086735 0.537546 1.571193
-0.077821 0.535530 1.565303
-0.069076 0.534328 1.561789
-0.060422 0.533584 1.559612
-0.051884 0.533785 1.560201
-0.043456 0.535422 1.564985
-0.034915 0.536136 1.567072
-0.026348 0.536791 1.568987
-0.017804 0.538747 1.574704
-0.009184 0.539984 1.578321
-0.000526 0.542237 1.584906
0.008239 0.546802 1.598248
0.017236 0.554116 1.619627
0.026579 0.563773 1.647854
0.037752 0.597509 1.746460
-0.106316 0.558452 1.606534
-0.096700 0.553866 1.593342
-0.087209 0.549156 1.579790
-0.077922 0.544832 1.567352
-0.069151 0.543483 1.563473
-0.060537 0.543171 1.562574
-0.051926 0.542787 1.561470
-0.043477 0.544271 1.565737
-0.034966 0.545535 1.569376
-0.026359 0.545620 1.569619
-0.017787 0.546878 1.573239
-0.009187 0.548781 1.578712
-0.000526 0.551286 1.585919
0.008239 0.555574 1.598255
0.017195 0.561655 1.615749
0.026509 0.571306 1.643512
0.036317 0.584018 1.680083
-0.106550 0.568517 1.610074
-0.096920 0.563890 1.596970
-0.087608 0.560377 1.587019
-0.078363 0.556563 1.576219
-0.069282 0.553113 1.566450
-0.060603 0.552345 1.564274
-0.052031 0.552473 1.564637
-0.043495 0.553097 1.566405
-0.034996 0.554613 1.570698
-0.026411 0.555317 1.572690
-0.017777 0.555176 1.572291
-0.009176 0.556802 1.576895
-0.000526 0.558950 1.582980
0.008237 0.564210 1.597877
0.017173 0.569792 1.613685
0.026486 0.579824 1.642095
-0.106922 0.579364 1.615685
-0.096846 0.572211 1.595737
-0.087537 0.568619 1.585720
-0.078724 0.567812 1.583471
-0.069797 0.565880 1.578084
-0.060757 0.562359 1.568264
-0.052233 0.563236 1.570710
-0.043518 0.561992 1.567239
-0.034952 0.562527 1.568732
-0.026397 0.563645 1.571849
-0.017773 0.563697 1.571996
-0.009170 0.565084 1.575863
-0.000525 0.567490 1.582572
0.008223 0.571988 1.595117
0.017133 0.577291 1.609905
0.026344 0.585673 1.633278
-0.107776 0.592930 1.628596
-0.097023 0.582028 1.598652
-0.087617 0.577848 1.587172
-0.078606 0.575638 1.581101
-0.069805 0.574609 1.578275
-0.060951 0.572789 1.573276
-0.052268 0.572229 1.571738
-0.043550 0.571004 1.568373
-0.034959 0.571257 1.569067
-0.026413 0.572618 1.572806
-0.017768 0.572141 1.571496
-0.009157 0.572930 1.573663
-0.000524 0.575159 1.579785
0.008214 0.580105 1.593369
0.017119 0.585652 1.608606
0.026321 0.594123 1.631875
-0.098143 0.597622 1.617111
-0.087680 0.586978 1.588309
-0.078674 0.584821 1.582475
-0.069769 0.582965 1.577451
-0.061032 0.582189 1.575350
-0.052386 0.582167 1.575292
-0.043583 0.580055 1.569576
-0.034929 0.579364 1.567708
-0.026391 0.580763 1.571492
-0.017765 0.580691 1.571297
-0.009146 0.580828 1.571668
-0.000524 0.583243 1.578203
0.008200 0.587835 1.590629
0.017085 0.593286 1.605379
0.026150 0.599166 1.621290
0.035913 0.613973 1.661355
-0.098539 0.608941 1.623632
-0.087606 0.595194 1.586978
-0.078534 0.592446 1.579652
-0.069607 0.590252 1.573801
-0.060979 0.590319 1.573979
-0.052292 0.589751 1.572465
-0.043604 0.588949 1.570328
-0.034917 0.587759 1.567154
-0.026329 0.588010 1.567823
-0.017714 0.587618 1.566779
-0.009142 0.589202 1.571002
-0.000523 0.591281 1.576545
0.008196 0.596267 1.589840
0.017100 0.602635 1.606818
0.026114 0.607214 1.619029
0.035357 0.613442 1.635635
-0.087582 0.603734 1.586539
-0.078407 0.600143 1.577100
-0.069531 0.598226 1.572065
-0.060802 0.597221 1.569423
-0.052295 0.598421 1.572577
-0.043574 0.597158 1.569258
-0.034925 0.596495 1.567516
-0.026359 0.597294 1.569615
-0.017701 0.595776 1.565624
-0.009127 0.596822 1.568373
-0.000522 0.598368 1.572437
0.008150 0.601623 1.580991
0.017019 0.608551 1.599196
0.026025 0.614007 1.613533
0.035763 0.629576 1.654447
-0.087944 0.614970 1.593092
-0.078468 0.609273 1.578334
-0.069459 0.606228 1.570446
-0.060822 0.606034 1.569943
-0.052245 0.606461 1.571049
-0.043587 0.605950 1.569726
-0.034898 0.604629 1.566305
-0.026263 0.603707 1.563915
-0.017685 0.603801 1.564159
-0.009104 0.603923 1.564476
-0.000521 0.605276 1.567981
0.008135 0.609141 1.577992
0.016916 0.613578 1.589488
0.025879 0.619371 1.604494
0.035569 0.635184 1.645459
-0.087930 0.623616 1.592849
-0.078400 0.617395 1.576959
-0.069483 0.615053 1.570978
-0.060774 0.614159 1.568695
-0.052170 0.614202 1.568804
-0.043552 0.614060 1.568440
-0.034930 0.613795 1.567765
-0.026324 0.613695 1.567508
-0.017690 0.612552 1.564588
-0.009084 0.611190 1.561110
-0.000519 0.612404 1.564211
0.008114 0.616235 1.573997
0.016850 0.619874 1.583290
0.025767 0.625444 1.597518
0.035245 0.638343 1.630466
-0.088717 0.638013 1.607097
-0.078312 0.625344 1.575186
-0.069575 0.624505 1.573073
-0.060823 0.623268 1.569958
-0.052189 0.623035 1.569371
-0.043489 0.621776 1.566198
-0.034888 0.621648 1.565877
-0.026303 0.621812 1.566289
-0.017705 0.621674 1.565942
-0.009092 0.620304 1.562491
-0.000519 0.620795 1.563729
0.008102 0.623898 1.571543
0.016814 0.627219 1.579908
0.025656 0.631486 1.590658
0.034974 0.642318 1.617942
-0.078992 0.639490 1.588858
-0.069613 0.633476 1.573917
-0.060832 0.631981 1.570201
-0.052181 0.631546 1.569120
-0.043538 0.631079 1.567960
-0.034873 0.629960 1.565181
-0.026232 0.628696 1.562041
-0.017681 0.629407 1.563805
-0.009095 0.629090 1.563020
-0.000519 0.629666 1.564449
0.008089 0.631514 1.569040
0.016803 0.635468 1.578866
0.025539 0.637292 1.583398
0.034597 0.644178 1.600506
0.044197 0.656313 1.630657
-0.080088 0.657204 1.610909
-0.069599 0.641988 1.573610
-0.060695 0.639153 1.566662
-0.052080 0.638923 1.566100
-0.043385 0.637430 1.562438
-0.034795 0.637122 1.561684
-0.026185 0.636139 1.559276
-0.017635 0.636323 1.559726
-0.009081 0.636664 1.560561
-0.000519 0.637447 1.562480
0.008067 0.638435 1.564902
0.016730 0.641333 1.572006
0.025442 0.643527 1.577383
0.034335 0.648008 1.588367
0.043814 0.659503 1.616543
-0.069836 0.652839 1.578973
-0.060721 0.648027 1.567334
-0.051994 0.646446 1.563509
-0.043399 0.646210 1.562938
-0.034798 0.645749 1.561823
-0.026196 0.644962 1.559920
-0.017629 0.644672 1.559219
-0.009081 0.645198 1.560492
-0.000517 0.644451 1.558685
0.008053 0.645907 1.562205
0.016664 0.647395 1.565805
0.025381 0.650606 1.573570
0.034247 0.655036 1.584286
0.043249 0.659754 1.595696
0.052795 0.669772 1.619927
-0.070105 0.664051 1.585054
-0.060666 0.656032 1.565912
-0.051931 0.654237 1.561628
-0.043392 0.654685 1.562697
-0.034768 0.653745 1.560454
-0.026150 0.652379 1.557194
-0.017616 0.652769 1.558124
-0.009068 0.652817 1.558238
-0.000516 0.651764 1.555726
0.008027 0.652340 1.557102
0.016576 0.652536 1.557567
0.025301 0.657163 1.568613
0.034126 0.661392 1.578708
0.043001 0.664682 1.586559
0.052830 0.679118 1.621018
-0.071309 0.684300 1.612270
-0.060817 0.666279 1.569811
-0.051941 0.662925 1.561909
-0.043366 0.662864 1.561765
-0.034731 0.661617 1.558827
-0.026133 0.660478 1.556144
-0.017573 0.659688 1.554281
-0.009053 0.660289 1.555698
-0.000516 0.659949 1.554899
0.008020 0.660305 1.555735
0.016575 0.661040 1.557468
0.025217 0.663575 1.563440
0.033919 0.665987 1.569123
0.042782 0.669944 1.578447
0.052210 0.679932 1.601979
-0.060868 0.675457 1.571125
-0.052022 0.672547 1.564356
-0.043405 0.672024 1.563139
-0.034729 0.670117 1.558703
-0.026122 0.668728 1.555473
-0.017570 0.668089 1.553987
-0.009032 0.667322 1.552202
-0.000516 0.668110 1.554035
0.008005 0.667623 1.552901
0.016543 0.668294 1.554464
0.025099 0.669007 1.556120
0.033815 0.672520 1.564294
0.042667 0.676793 1.574233
0.051888 0.684474 1.592098
0.062622 0.707037 1.644579
-0.061573 0.692000 1.589318
-0.052072 0.681786 1.565861
-0.043488 0.681906 1.566136
-0.034736 0.678811 1.559029
-0.026075 0.676049 1.552685
-0.017515 0.674517 1.549165
-0.009020 0.674896 1.550037
-0.000515 0.675224 1.550788
0.007984 0.674315 1.548702
0.016493 0.674788 1.549788
0.025102 0.677615 1.556280
0.033723 0.679255 1.560048
0.042558 0.683668 1.570183
0.051721 0.690989 1.586998
0.061427 0.702399 1.613203
-0.052296 0.693346 1.572593
-0.043402 0.689133 1.563036
-0.034669 0.686049 1.556041
-0.026040 0.683665 1.550634
-0.017469 0.681214 1.545074
-0.009003 0.682118 1.547126
-0.000514 0.682624 1.548274
0.007980 0.682453 1.547885
0.016460 0.681925 1.546688
0.024986 0.682997 1.549119
0.033516 0.683607 1.550502
0.042372 0.689267 1.563340
0.051468 0.696271 1.579227
0.061143 0.707955 1.605727
-0.053121 0.713056 1.597415
-0.043376 0.697299 1.562116
-0.034587 0.692948 1.552369
-0.026052 0.692476 1.551312
-0.017478 0.690051 1.545879
-0.008966 0.687807 1.540851
-0.000513 0.689522 1.544694
0.007951 0.688500 1.542404
0.016419 0.688693 1.542836
0.024889 0.688810 1.543098
0.033410 0.689913 1.545569
0.042293 0.696548 1.560434
0.051225 0.701605 1.571764
0.060512 0.709368 1.589154
0.072698 0.744884 1.668717
-0.043392 0.706127 1.562684
-0.034638 0.702495 1.554646
-0.025990 0.699331 1.547643
-0.017452 0.697496 1.543584
-0.008961 0.695861 1.539965
-0.000511 0.695423 1.538996
0.007942 0.696115 1.540527
0.016394 0.696107 1.540510
0.024870 0.696731 1.541891
0.033356 0.697276 1.543096
0.042090 0.701713 1.552917
0.051032 0.707553 1.565840
0.060408 0.716865 1.586447
0.070905 0.735452 1.627582
-0.043669 0.719273 1.572680
-0.034661 0.711487 1.555656
-0.025995 0.707959 1.547941
-0.017380 0.703031 1.537166
-0.008942 0.702769 1.536593
-0.000510 0.702229 1.535413
0.007910 0.701779 1.534428
0.016346 0.702478 1.535957
0.024841 0.704384 1.540124
0.033290 0.704343 1.540035
0.041937 0.707660 1.547288
0.050830 0.713316 1.559654
0.060095 0.721800 1.578204
0.070251 0.737513 1.612560
-0.044274 0.737986 1.594465
-0.034596 0.718680 1.552754
-0.025877 0.713197 1.540907
-0.017360 0.710648 1.535401
-0.008931 0.710391 1.534845
-0.000509 0.710079 1.534172
0.007898 0.709075 1.532001
0.016317 0.709662 1.533270
0.024741 0.709947 1.533886
0.033227 0.711434 1.537098
0.041890 0.715346 1.545551
0.050559 0.718028 1.551345
0.059843 0.727401 1.571595
0.070190 0.745712 1.611158
-0.044386 0.748623 1.598498
-0.034573 0.726709 1.551706
-0.025782 0.718995 1.535235
-0.017351 0.718702 1.534608
-0.008920 0.717907 1.532911
-0.000509 0.718060 1.533237
0.007895 0.717275 1.531561
0.016277 0.716281 1.529438
0.024666 0.716192 1.529248
0.033169 0.718616 1.534425
0.041713 0.720769 1.539022
0.050415 0.724470 1.546923
0.059628 0.733383 1.565956
0.069623 0.748460 1.598148
-0.044186 0.753984 1.591300
-0.034519 0.734091 1.549316
-0.025786 0.727551 1.535511
-0.017378 0.728269 1.537028
-0.008907 0.725225 1.530603
-0.000507 0.724186 1.528411
0.007874 0.723691 1.527365
0.016270 0.724379 1.528817
0.024674 0.724834 1.529778
0.033120 0.725962 1.532160
0.041639 0.727916 1.536282
0.050204 0.729892 1.540453
0.059061 0.734919 1.551063
0.069219 0.752834 1.588874
0.080791 0.780400 1.647051
-0.034442 0.740927 1.545841
-0.025784 0.735921 1.535397
-0.017367 0.736241 1.536064
-0.008900 0.733077 1.529463
-0.000507 0.732226 1.527687
0.007867 0.731468 1.526106
0.016230 0.730944 1.525013
0.024619 0.731588 1.526356
0.033041 0.732625 1.528520
0.041446 0.732932 1.529160
0.050180 0.737985 1.539702
0.059023 0.742955 1.550071
0.068720 0.756059 1.577411
0.080334 0.784972 1.637734
-0.044135 0.770546 1.589441
-0.034447 0.749519 1.546066
-0.025813 0.745179 1.537115
-0.017324 0.742805 1.532217
-0.008880 0.739766 1.525950
-0.000507 0.740089 1.526617
0.007865 0.739583 1.525573
0.016211 0.738464 1.523264
0.024585 0.738946 1.524258
0.033089 0.742095 1.530754
0.041399 0.740496 1.527455
0.050115 0.745461 1.537696
0.058935 0.750332 1.547745
0.068564 0.762979 1.573833
0.080216 0.792787 1.635319
-0.044276 0.781767 1.594538
-0.034396 0.756884 1.543787
-0.025803 0.753301 1.536479
-0.017332 0.751585 1.532977
-0.008907 0.750455 1.530673
-0.000507 0.749492 1.528710
0.007859 0.747475 1.524594
0.016199 0.746269 1.522135
0.024541 0.745948 1.521481
0.033032 0.749200 1.528113
0.041379 0.748515 1.526717
0.050127 0.754080 1.538066
0.058842 0.757628 1.545303
0.068194 0.767457 1.565351
0.078648 0.786086 1.603349
-0.043525 0.777102 1.567482
-0.034357 0.764476 1.542013
-0.025634 0.756768 1.526465
-0.017266 0.757115 1.527165
-0.008903 0.758483 1.529924
-0.000506 0.755029 1.522957
0.007837 0.753725 1.520328
0.016188 0.754099 1.521082
0.024549 0.754564 1.522021
0.032903 0.754623 1.522138
0.041403 0.757314 1.527567
0.050089 0.761946 1.536909
0.058855 0.766283 1.545658
0.068168 0.775740 1.564734
0.078846 0.796887 1.607390
-0.044501 0.803322 1.602631
-0.034244 0.770400 1.536952
-0.025609 0.764381 1.524943
-0.017276 0.765940 1.528053
-0.008900 0.766658 1.529486
-0.000505 0.763195 1.522578
0.007848 0.763102 1.522391
0.016193 0.762671 1.521532
0.024543 0.762716 1.521622
0.032969 0.764503 1.525187
0.041361 0.764919 1.526017
0.049951 0.768254 1.532670
0.058933 0.775784 1.547693
0.068284 0.785668 1.567412
-0.034393 0.782213 1.543621
-0.025706 0.775682 1.530732
-0.017262 0.773682 1.526787
-0.008860 0.771550 1.522578
-0.000505 0.770271 1.520055
0.007851 0.771710 1.522895
0.016192 0.770975 1.521444
0.024570 0.771914 1.523296
0.033010 0.773828 1.527075
0.041425 0.774502 1.528404
0.049920 0.776179 1.531714
0.058844 0.783092 1.545355
0.068477 0.796509 1.571833
-0.034633 0.796209 1.554408
-0.025765 0.785868 1.534221
-0.017281 0.782900 1.528426
-0.008868 0.780573 1.523883
-0.000505 0.778619 1.520069
0.007854 0.780437 1.523618
0.016195 0.779465 1.521719
0.024569 0.780245 1.523244
0.033011 0.782232 1.527123
0.041463 0.783604 1.529800
0.050031 0.786330 1.535123
0.058913 0.792507 1.547181
0.068722 0.808013 1.577454
0.077136 0.805496 1.572539
-0.034440 0.800263 1.545765
-0.025763 0.794223 1.534098
-0.017313 0.792751 1.531255
-0.008876 0.789706 1.525373
-0.000505 0.788308 1.522673
0.007870 0.790370 1.526655
0.016209 0.788505 1.523053
0.024543 0.787780 1.521653
0.032904 0.788049 1.522172
0.041375 0.790307 1.526535
0.050004 0.794334 1.534313
0.058753 0.798815 1.542968
0.068431 0.813212 1.570777
-0.034697 0.814776 1.557292
-0.025892 0.806662 1.541785
-0.017300 0.800559 1.530119
-0.008863 0.796885 1.523097
-0.000507 0.799013 1.527165
0.007858 0.797541 1.524351
0.016226 0.797723 1.524698
0.024557 0.796560 1.522476
0.032959 0.797725 1.524702
0.041334 0.797892 1.525022
0.049865 0.800523 1.530051
0.058849 0.808604 1.545496
0.069166 0.830663 1.587658
-0.035050 0.831694 1.573129
-0.025834 0.813311 1.538358
-0.017227 0.805533 1.523648
-0.008877 0.806543 1.525557
-0.000506 0.805765 1.524085
0.007871 0.807235 1.526866
0.016229 0.806233 1.524970
0.024542 0.804423 1.521547
0.032977 0.806540 1.525550
0.041375 0.807078 1.526569
0.050007 0.811212 1.534388
0.059028 0.819573 1.550204
0.069594 0.844563 1.597471
-0.025960 0.825749 1.545842
-0.017419 0.822989 1.540674
-0.008897 0.816715 1.528928
-0.000504 0.811632 1.519412
0.007850 0.813376 1.522678
0.016214 0.813838 1.523542
0.024510 0.811731 1.519599
0.033010 0.815723 1.527071
0.041553 0.818945 1.533104
0.050085 0.820916 1.536794
0.058823 0.825203 1.544818
0.070052 0.858953 1.608000
-0.025887 0.831883 1.541490
-0.017360 0.828635 1.535472
-0.008882 0.823703 1.526332
-0.000505 0.820956 1.521241
0.007870 0.823885 1.526668
0.016250 0.824014 1.526909
0.024700 0.826438 1.531399
0.033096 0.826256 1.531062
0.041632 0.828937 1.536031
0.050029 0.828423 1.535078
0.058685 0.831722 1.541191
-0.053165 1.043774 1.914659
-0.026097 0.847160 1.553997
-0.017319 0.835060 1.531803
-0.008877 0.831611 1.525475
-0.000506 0.830637 1.523688
0.007843 0.829392 1.521404
0.016332 0.836584 1.534598
0.024712 0.835228 1.532111
0.033003 0.832302 1.526743
0.041381 0.832316 1.526768
0.049936 0.835279 1.532203
0.059082 0.845860 1.551613
-0.053307 1.057096 1.919773
-0.026060 0.854473 1.551794
-0.017344 0.844677 1.534003
-0.008894 0.841631 1.528470
-0.000509 0.843459 1.531791
0.007867 0.840348 1.526141
0.016287 0.842686 1.530386
0.024645 0.841361 1.527980
0.033010 0.840868 1.527084
0.041564 0.844408 1.533513
0.049916 0.843360 1.531610
0.059674 0.862932 1.567154
-0.065067 1.088133 1.956640
-0.052633 1.054120 1.895479
-0.041034 1.024207 1.841691
-0.026231 0.868671 1.562012
-0.017358 0.853798 1.535268
-0.008892 0.849781 1.528045
-0.000509 0.852912 1.533675
0.007879 0.850002 1.528442
0.016180 0.845524 1.520390
0.024602 0.848244 1.525282
0.033008 0.849182 1.526968
0.041577 0.853098 1.534008
0.049852 0.850665 1.529634
0.059441 0.868132 1.561042
-0.063740 1.076458 1.916734
-0.052171 1.055173 1.878834
-0.041368 1.042737 1.856691
-0.026539 0.887531 1.580332
-0.017540 0.871260 1.551361
-0.008883 0.857293 1.526491
-0.000507 0.858266 1.528224
0.007866 0.856973 1.525921
0.016232 0.856611 1.525277
0.024659 0.858595 1.528808
0.033130 0.860740 1.532630
0.041388 0.857600 1.527038
0.050160 0.864373 1.539098
0.059974 0.884551 1.575026
-0.063355 1.080404 1.905147
-0.052302 1.068172 1.883578
-0.041304 1.051309 1.853842
-0.017486 0.877076 1.546605
-0.008922 0.869476 1.533204
-0.000510 0.870928 1.535764
0.007869 0.865618 1.526400
0.016141 0.860126 1.516717
0.024575 0.864038 1.523614
0.032913 0.863449 1.522577
0.041390 0.866022 1.527113
0.050159 0.872790 1.539047
0.058919 0.877483 1.547323
-0.073840 1.091327 1.905966
-0.062489 1.075941 1.879095
-0.051678 1.065635 1.861096
-0.041266 1.060490 1.852112
-0.017525 0.887541 1.550061
-0.008875 0.873263 1.525125
-0.000504 0.869281 1.518171
0.007849 0.871768 1.522514
0.016228 0.873137 1.524905
0.024567 0.872133 1.523152
0.033025 0.874771 1.527759
0.041498 0.876674 1.531082
0.050386 0.885236 1.546035
0.059473 0.894311 1.561886
-0.096215 1.118739 1.935294
-0.084650 1.106370 1.913898
-0.072702 1.084802 1.876587
-0.062000 1.077760 1.864405
-0.051609 1.074400 1.858593
-0.041294 1.071372 1.853356
-0.017472 0.893300 1.545310
-0.008841 0.878278 1.519323
-0.000504 0.877306 1.517642
0.007856 0.880931 1.523914
0.016278 0.884204 1.529576
0.024520 0.878775 1.520183
0.032983 0.882027 1.525810
0.041548 0.886151 1.532944
0.049895 0.884995 1.530944
0.060033 0.911387 1.576598
-0.094481 1.109007 1.900422
-0.083446 1.100996 1.886693
-0.072817 1.096821 1.879539
-0.062063 1.089093 1.866296
-0.051767 1.087937 1.864314
-0.041199 1.079059 1.849101
-0.030863 1.072479 1.837826
-0.017766 0.916962 1.571328
-0.008980 0.900560 1.543221
-0.000510 0.895871 1.535187
0.007846 0.888167 1.521984
0.016282 0.892803 1.529929
